# .PCD v0.7 - Point Cloud Data file format
VERSION 0.7
FIELDS x y z rgb
SIZE 4 4 4 4
TYPE F F F U
COUNT 1 1 1 1
WIDTH 1278
HEIGHT 1
VIEWPOINT 0 0 0 1 0 0 0
POINTS 1278
DATA ascii
1.645 -0.69300002 -0.97799999 4278190080
1.732 -0.71600002 -0.98199999 4278190080
1.824 -0.741 -0.986 4278190080
1.9220001 -0.76700002 -0.99000001 4278190080
2.0239999 -0.79500002 -0.99400002 4278190080
1.626 -0.68000001 -0.977 4278190080
1.7130001 -0.70300001 -0.98199999 4278190080
1.801 -0.72600001 -0.98400003 4278190080
1.888 -0.74800003 -0.98299998 4278190080
2.003 -0.78100002 -0.99299997 4278190080
1.607 -0.66799998 -0.97600001 4278190080
1.696 -0.69 -0.98100001 4278190080
1.78 -0.71100003 -0.98100001 4278190080
1.876 -0.73699999 -0.986 4278190080
1.979 -0.764 -0.991 4278190080
1.679 -0.67799997 -0.98100001 4278190080
1.762 -0.69800001 -0.98100001 4278190080
1.853 -0.72100002 -0.98299998 4278190080
1.9579999 -0.74900001 -0.98900002 4278190080
1.659 -0.66399997 -0.97799999 4278190080
1.748 -0.68599999 -0.98199999 4278190080
1.832 -0.70599997 -0.98000002 4278190080
1.938 -0.73500001 -0.98799998 4278190080
1.643 -0.65100002 -0.97600001 4278190080
1.724 -0.67000002 -0.97600001 4278190080
1.816 -0.69300002 -0.97899997 4278190080
1.918 -0.72000003 -0.986 4278190080
1.6289999 -0.639 -0.97600001 4278190080
1.7130001 -0.65799999 -0.97799999 4278190080
1.801 -0.68000001 -0.97899997 4278190080
1.895 -0.70300001 -0.98199999 4278190080
1.697 -0.64499998 -0.97600001 4278190080
1.786 -0.66600001 -0.97799999 4278190080
1.8789999 -0.68900001 -0.98100001 4278190080
1.686 -0.63300002 -0.97600001 4278190080
1.768 -0.65200001 -0.97500002 4278190080
1.864 -0.676 -0.97899997 4278190080
1.6720001 -0.62099999 -0.97399998 4278190080
1.758 -0.63999999 -0.97600001 4278190080
1.849 -0.662 -0.977 4278190080
1.6619999 -0.60900003 -0.97399998 4278190080
1.739 -0.625 -0.97100002 4278190080
1.837 -0.64899999 -0.977 4278190080
1.651 -0.597 -0.97299999 4278190080
1.729 -0.61299998 -0.97100002 4278190080
1.826 -0.63599998 -0.977 4278190080
1.636 -0.583 -0.97000003 4278190080
1.723 -0.602 -0.97299999 4278190080
1.814 -0.62300003 -0.97500002 4278190080
1.6210001 -0.56900001 -0.96600002 4278190080
1.71 -0.58899999 -0.97000003 4278190080
1.804 -0.611 -0.97399998 4278190080
1.701 -0.57700002 -0.96899998 4278190080
1.7920001 -0.597 -0.972 4278190080
1.6950001 -0.56599998 -0.96899998 4278190080
1.786 -0.58600003 -0.972 4278190080
1.6900001 -0.55500001 -0.97000003 4278190080
1.777 -0.57300001 -0.97000003 4278190080
1.683 -0.54299998 -0.96799999 4278190080
1.7690001 -0.56 -0.96899998 4278190080
1.677 -0.53100002 -0.96700001 4278190080
1.762 -0.54799998 -0.96700001 4278190080
1.6670001 -0.51800001 -0.963 4278190080
1.757 -0.537 -0.96700001 4278190080
1.669 -0.509 -0.96600002 4278190080
1.751 -0.52499998 -0.96499997 4278190080
1.663 -0.49700001 -0.963 4278190080
1.751 -0.514 -0.96600002 4278190080
1.658 -0.486 -0.96100003 4278190080
1.745 -0.50199997 -0.963 4278190080
1.658 -0.47499999 -0.96200001 4278190080
1.742 -0.491 -0.96100003 4278190080
1.654 -0.46399999 -0.95899999 4278190080
1.742 -0.47999999 -0.96100003 4278190080
1.654 -0.454 -0.95899999 4278190080
1.744 -0.47 -0.96200001 4278190080
1.659 -0.44400001 -0.95999998 4278190080
1.7460001 -0.46000001 -0.96200001 4278190080
1.658 -0.43399999 -0.958 4278190080
1.7460001 -0.449 -0.96100003 4278190080
1.66 -0.42399999 -0.958 4278190080
1.747 -0.43799999 -0.95899999 4278190080
1.656 -0.412 -0.95300001 4278190080
1.75 -0.428 -0.958 4278190080
1.664 -0.403 -0.95499998 4278190080
1.756 -0.419 -0.95899999 4278190080
1.671 -0.39500001 -0.95599997 4278190080
1.76 -0.40900001 -0.958 4278190080
1.674 -0.38499999 -0.95499998 4278190080
1.762 -0.39899999 -0.95599997 4278190080
1.682 -0.37599999 -0.95599997 4278190080
1.7690001 -0.389 -0.95599997 4278190080
1.688 -0.366 -0.95499998 4278190080
1.775 -0.37900001 -0.95599997 4278190080
1.693 -0.35699999 -0.95300001 4278190080
1.7819999 -0.37 -0.95499998 4278190080
1.61 -0.33399999 -0.949 4278190080
1.6950001 -0.34599999 -0.94999999 4278190080
1.7869999 -0.36000001 -0.95300001 4278190080
1.62 -0.32600001 -0.949 4278190080
1.7079999 -0.338 -0.95200002 4278190080
1.798 -0.35100001 -0.95300001 4278190080
1.628 -0.317 -0.949 4278190080
1.7180001 -0.33000001 -0.95300001 4278190080
1.807 -0.34200001 -0.95300001 4278190080
1.637 -0.30899999 -0.94800001 4278190080
1.73 -0.32100001 -0.95300001 4278190080
1.818 -0.333 -0.95300001 4278190080
1.65 -0.301 -0.94999999 4278190080
1.738 -0.31200001 -0.95200002 4278190080
1.825 -0.32300001 -0.94999999 4278190080
1.656 -0.29100001 -0.94599998 4278190080
1.749 -0.303 -0.95099998 4278190080
1.848 -0.317 -0.95499998 4278190080
1.666 -0.28299999 -0.94499999 4278190080
1.762 -0.29499999 -0.95099998 4278190080
1.857 -0.30700001 -0.95300001 4278190080
1.682 -0.27500001 -0.94700003 4278190080
1.77 -0.28600001 -0.94800001 4278190080
1.865 -0.29800001 -0.94999999 4278190080
1.696 -0.26699999 -0.94800001 4278190080
1.786 -0.278 -0.949 4278190080
1.88 -0.289 -0.94999999 4278190080
1.709 -0.259 -0.94700003 4278190080
1.798 -0.26899999 -0.94800001 4278190080
1.895 -0.28099999 -0.949 4278190080
1.631 -0.23999999 -0.94199997 4278190080
1.723 -0.25099999 -0.94700003 4278190080
1.811 -0.26100001 -0.94599998 4278190080
1.9170001 -0.273 -0.95200002 4278190080
1.6440001 -0.23199999 -0.94099998 4278190080
1.734 -0.242 -0.94400001 4278190080
1.827 -0.25299999 -0.94599998 4278190080
1.928 -0.264 -0.949 4278190080
1.658 -0.22400001 -0.94099998 4278190080
1.7539999 -0.235 -0.94700003 4278190080
1.844 -0.245 -0.94599998 4278190080
1.948 -0.25600001 -0.94999999 4278190080
1.676 -0.21699999 -0.94199997 4278190080
1.775 -0.228 -0.949 4278190080
1.8609999 -0.237 -0.94499999 4278190080
1.967 -0.248 -0.94999999 4278190080
1.693 -0.20999999 -0.94199997 4278190080
1.7869999 -0.219 -0.94499999 4278190080
1.88 -0.229 -0.94599998 4278190080
1.9859999 -0.23999999 -0.949 4278190080
1.7130001 -0.20200001 -0.94400001 4278190080
1.804 -0.211 -0.94499999 4278190080
1.902 -0.221 -0.94700003 4278190080
2.0050001 -0.23199999 -0.94800001 4278190080
1.732 -0.19499999 -0.94400001 4278190080
1.824 -0.204 -0.94499999 4278190080
1.924 -0.214 -0.94800001 4278190080
2.026 -0.22400001 -0.94800001 4278190080
1.7460001 -0.18700001 -0.94099998 4278190080
1.842 -0.19599999 -0.94400001 4278190080
1.941 -0.205 -0.94499999 4278190080
2.056 -0.21600001 -0.95099998 4278190080
1.6670001 -0.171 -0.93400002 4278190080
1.7690001 -0.18000001 -0.94300002 4278190080
1.865 -0.189 -0.94499999 4278190080
1.9579999 -0.197 -0.94300002 4278190080
2.0769999 -0.208 -0.949 4278190080
1.688 -0.164 -0.93599999 4278190080
1.79 -0.17299999 -0.94300002 4278190080
1.887 -0.18099999 -0.94499999 4278190080
1.9859999 -0.19 -0.94499999 4278190080
2.1029999 -0.2 -0.94999999 4278190080
1.711 -0.15700001 -0.93699998 4278190080
1.811 -0.16599999 -0.94300002 4278190080
1.9069999 -0.17399999 -0.94400001 4278190080
2.0090001 -0.182 -0.94400001 4278190080
2.1270001 -0.193 -0.949 4278190080
1.733 -0.15000001 -0.93800002 4278190080
1.831 -0.15800001 -0.94199997 4278190080
1.931 -0.16599999 -0.94400001 4278190080
2.0350001 -0.175 -0.94499999 4278190080
2.158 -0.185 -0.94999999 4278190080
1.755 -0.14300001 -0.93800002 4278190080
1.855 -0.15099999 -0.94199997 4278190080
1.952 -0.15899999 -0.94199997 4278190080
2.052 -0.167 -0.94 4278190080
2.187 -0.178 -0.95099998 4278190080
1.775 -0.13600001 -0.93599999 4278190080
1.873 -0.14399999 -0.93900001 4278190080
1.977 -0.152 -0.94199997 4278190080
2.098 -0.161 -0.949 4278190080
2.2160001 -0.17 -0.94999999 4278190080
1.802 -0.13 -0.93800002 4278190080
1.902 -0.13699999 -0.94099998 4278190080
2.0050001 -0.145 -0.94300002 4278190080
2.1240001 -0.153 -0.94700003 4278190080
2.2509999 -0.163 -0.95200002 4278190080
1.723 -0.116 -0.93099999 4278190080
1.83 -0.123 -0.94 4278190080
1.931 -0.13 -0.94300002 4278190080
2.0309999 -0.13699999 -0.94199997 4278190080
2.1570001 -0.146 -0.949 4278190080
2.2809999 -0.155 -0.95099998 4278190080
1.747 -0.109 -0.93199998 4278190080
1.852 -0.116 -0.93900001 4278190080
1.951 -0.123 -0.94 4278190080
2.052 -0.13 -0.93800002 4278190080
2.1889999 -0.139 -0.949 4278190080
2.3180001 -0.148 -0.95200002 4278190080
1.779 -0.103 -0.935 4278190080
1.878 -0.11 -0.93900001 4278190080
1.979 -0.116 -0.93900001 4278190080
2.099 -0.124 -0.94599998 4278190080
2.217 -0.132 -0.94700003 4278190080
2.3570001 -0.141 -0.954 4278190080
1.794 -0.096000001 -0.93000001 4278190080
1.902 -0.103 -0.93699998 4278190080
2.0120001 -0.11 -0.94199997 4278190080
2.131 -0.117 -0.94599998 4278190080
2.2539999 -0.125 -0.949 4278190080
2.3940001 -0.133 -0.954 4278190080
1.825 -0.090000004 -0.93199998 4278190080
1.924 -0.096000001 -0.93400002 4278190080
2.039 -0.103 -0.94 4278190080
2.1630001 -0.11 -0.94599998 4278190080
2.2880001 -0.117 -0.94800001 4278190080
2.4360001 -0.126 -0.95599997 4278190080
1.857 -0.083999999 -0.935 4278190080
1.961 -0.090000004 -0.93800002 4278190080
2.073 -0.096000001 -0.94199997 4278190080
2.1989999 -0.103 -0.94700003 4278190080
2.329 -0.111 -0.95099998 4278190080
2.4809999 -0.119 -0.958 4278190080
1.888 -0.078000002 -0.93599999 4278190080
1.988 -0.082999997 -0.93699998 4278190080
2.0999999 -0.089000002 -0.93900001 4278190080
2.234 -0.096000001 -0.94700003 4278190080
2.3710001 -0.104 -0.95200002 4278190080
2.527 -0.112 -0.95899999 4278190080
1.9119999 -0.071000002 -0.93400002 4278190080
2.0209999 -0.077 -0.93699998 4278190080
2.1440001 -0.082999997 -0.94400001 4278190080
2.2679999 -0.089000002 -0.94599998 4278190080
2.4089999 -0.097000003 -0.95099998 4278190080
2.5669999 -0.104 -0.958 4278190080
1.937 -0.064999998 -0.93099999 4278190080
2.0569999 -0.071000002 -0.93900001 4278190080
2.178 -0.075999998 -0.94300002 4278190080
2.306 -0.082999997 -0.94599998 4278190080
2.4579999 -0.090000004 -0.954 4278190080
2.6129999 -0.097000003 -0.958 4278190080
1.967 -0.059 -0.93099999 4278190080
2.0869999 -0.064000003 -0.93699998 4278190080
2.221 -0.07 -0.94599998 4278190080
2.349 -0.075999998 -0.94800001 4278190080
2.5039999 -0.082999997 -0.95499998 4278190080
2.665 -0.090000004 -0.95999998 4278190080
2.0020001 -0.052999999 -0.93199998 4278190080
2.1159999 -0.057999998 -0.935 4278190080
2.2579999 -0.063000001 -0.94499999 4278190080
2.3959999 -0.068999998 -0.94999999 4278190080
2.553 -0.075999998 -0.95700002 4278190080
2.7219999 -0.082999997 -0.963 4278190080
2.0439999 -0.046999998 -0.93599999 4278190080
2.1700001 -0.052000001 -0.94199997 4278190080
2.3 -0.057 -0.94599998 4278190080
2.4430001 -0.063000001 -0.95099998 4278190080
2.5969999 -0.068999998 -0.95599997 4278190080
2.78 -0.075999998 -0.96399999 4278190080
2.076 -0.041000001 -0.93400002 4278190080
2.204 -0.045000002 -0.94 4278190080
2.342 -0.050999999 -0.94700003 4278190080
2.4909999 -0.056000002 -0.95200002 4278190080
2.658 -0.061999999 -0.95899999 4278190080
2.8399999 -0.068999998 -0.96600002 4278190080
2.115 -0.035 -0.935 4278190080
2.25 -0.039000001 -0.94300002 4278190080
2.3859999 -0.044 -0.94700003 4278190080
2.5469999 -0.048999999 -0.95599997 4278190080
2.7130001 -0.055 -0.96100003 4278190080
2.8989999 -0.061999999 -0.96700001 4278190080
2.155 -0.028999999 -0.93599999 4278190080
2.2950001 -0.033 -0.94499999 4278190080
2.437 -0.037999999 -0.94999999 4278190080
2.5940001 -0.043000001 -0.95499998 4278190080
2.77 -0.048 -0.96200001 4278190080
2.964 -0.054000001 -0.96899998 4278190080
2.2030001 -0.023 -0.94 4278190080
2.3299999 -0.027000001 -0.94199997 4278190080
2.4909999 -0.032000002 -0.95300001 4278190080
2.6500001 -0.035999998 -0.95700002 4278190080
2.825 -0.041000001 -0.96100003 4278190080
3.0369999 -0.046999998 -0.972 4278190080
2.2420001 -0.017000001 -0.93900001 4278190080
2.3789999 -0.021 -0.94400001 4278190080
2.5409999 -0.025 -0.95300001 4278190080
2.7090001 -0.029999999 -0.95899999 4278190080
2.8900001 -0.035 -0.963 4278190080
3.109 -0.039999999 -0.97399998 4278190080
2.286 -0.011 -0.94 4278190080
2.4349999 -0.015 -0.94800001 4278190080
2.5999999 -0.018999999 -0.95599997 4278190080
2.77 -0.023 -0.96100003 4278190080
2.9619999 -0.028000001 -0.96700001 4278190080
3.1889999 -0.033 -0.977 4278190080
2.3340001 -0.0060000001 -0.94099998 4278190080
2.4849999 -0.0089999996 -0.94800001 4278190080
2.6530001 -0.013 -0.95599997 4278190080
2.8329999 -0.017000001 -0.963 4278190080
3.033 -0.021 -0.96899998 4278190080
3.273 -0.026000001 -0.98100001 4278190080
2.3829999 0 -0.94300002 4278190080
2.5439999 -0.003 -0.95200002 4278190080
2.7130001 -0.0060000001 -0.958 4278190080
2.9000001 -0.0099999998 -0.96399999 4278190080
3.108 -0.014 -0.97100002 4278190080
3.352 -0.018999999 -0.98100001 4278190080
2.437 0.0049999999 -0.94499999 4278190080
2.6010001 0.0020000001 -0.95300001 4278190080
2.7709999 0 -0.958 4278190080
2.9690001 -0.003 -0.96600002 4278190080
3.1960001 -0.0070000002 -0.97600001 4278190080
3.4400001 -0.011 -0.98400003 4278190080
2.494 0.0099999998 -0.94800001 4278190080
2.658 0.0080000004 -0.954 4278190080
2.8410001 0.0049999999 -0.96100003 4278190080
3.0439999 0.0020000001 -0.96799999 4278190080
3.2839999 0 -0.98000002 4278190080
3.5320001 -0.0040000002 -0.98500001 4278190080
2.55 0.016000001 -0.94999999 4278190080
2.724 0.014 -0.95700002 4278190080
2.9119999 0.011 -0.96399999 4278190080
3.1289999 0.0089999996 -0.97299999 4278190080
3.3640001 0.0060000001 -0.98000002 4278190080
3.6370001 0.0020000001 -0.99000001 4278190080
2.6129999 0.022 -0.95300001 4278190080
2.789 0.02 -0.95899999 4278190080
2.9860001 0.017999999 -0.96600002 4278190080
3.2130001 0.015 -0.97600001 4278190080
3.4549999 0.013 -0.98199999 4278190080
3.7490001 0.0099999998 -0.99400002 4278190080
2.674 0.027000001 -0.954 4278190080
2.858 0.026000001 -0.96100003 4278190080
3.063 0.024 -0.96799999 4278190080
3.3 0.022 -0.97799999 4278190080
3.55 0.02 -0.98299998 4278190080
3.8640001 0.017999999 -0.99699998 4278190080
2.7379999 0.033 -0.95599997 4278190080
2.9300001 0.032000002 -0.963 4278190080
3.1500001 0.029999999 -0.97299999 4278190080
3.392 0.028999999 -0.98100001 4278190080
3.668 0.027000001 -0.99000001 4278190080
2.8080001 0.037999999 -0.958 4278190080
3.007 0.037 -0.96600002 4278190080
3.2360001 0.037 -0.97500002 4278190080
3.487 0.035 -0.98299998 4278190080
3.7739999 0.034000002 -0.99199998 4278190080
2.8800001 0.044 -0.96100003 4278190080
3.0880001 0.043000001 -0.96799999 4278190080
3.3299999 0.043000001 -0.97899997 4278190080
3.5929999 0.041999999 -0.98699999 4278190080
3.902 0.041999999 -0.99800003 4278190080
2.957 0.048999999 -0.96399999 4278190080
3.181 0.048999999 -0.97399998 4278190080
3.4300001 0.048999999 -0.98299998 4278190080
3.6960001 0.048999999 -0.98799998 4278190080
3.039 0.055 -0.96700001 4278190080
3.2739999 0.055 -0.977 4278190080
3.5280001 0.055 -0.98500001 4278190080
3.819 0.056000002 -0.99299997 4278190080
3.1140001 0.059999999 -0.96700001 4278190080
3.3659999 0.061000001 -0.97899997 4278190080
3.6340001 0.061999999 -0.98699999 4278190080
3.9460001 0.063000001 -0.99800003 4278190080
3.2119999 0.066 -0.972 4278190080
3.464 0.067000002 -0.98199999 4278190080
3.7449999 0.068000004 -0.99000001 4278190080
3.3099999 0.071000002 -0.97600001 4278190080
3.5699999 0.072999999 -0.98500001 4278190080
3.8759999 0.075000003 -0.99599999 4278190080
3.4089999 0.077 -0.98000002 4278190080
3.684 0.079000004 -0.98900002 4278190080
3.513 0.082000002 -0.98299998 4278190080
3.8069999 0.085000001 -0.99299997 4278190080
3.6240001 0.086999997 -0.986 4278190080
3.937 0.090000004 -0.99699998 4278190080
3.7460001 0.093000002 -0.991 4278190080
3.869 0.097999997 -0.99400002 4278190080
5.1880002 1.464 1.261 4278190080
5.1490002 1.466 1.345 4278190080
5.112 1.469 1.4299999 4278190080
5.1459999 1.473 1.286 4278190080
5.1069999 1.475 1.369 4278190080
5.0710001 1.478 1.454 4278190080
5.1040001 1.4809999 1.3099999 4278190080
5.0679998 1.484 1.3940001 4278190080
5.0320001 1.488 1.478 4278190080
5.066 1.49 1.334 4278190080
5.0279999 1.493 1.418 4278190080
4.9889998 1.495 1.501 4278190080
5.0570002 1.493 1.275 4278190080
5.0300002 1.499 1.36 4278190080
4.9910002 1.501 1.443 4278190080
4.954 1.505 1.526 4278190080
5.039 1.494 1.2130001 4278190080
5.0300002 1.5039999 1.302 4278190080
4.9920001 1.506 1.385 4278190080
4.9489999 1.507 1.466 4278190080
4.915 1.512 1.55 4278190080
5.0310001 1.508 1.245 4278190080
4.9970002 1.511 1.3279999 4278190080
4.954 1.512 1.409 4278190080
4.9239998 1.517 1.494 4278190080
4.8850002 1.521 1.576 4278190080
4.994 1.5140001 1.27 4278190080
4.961 1.517 1.353 4278190080
4.9219999 1.5190001 1.4349999 4278190080
4.8870001 1.523 1.518 4278190080
4.842 1.525 1.598 4278190080
4.9640002 1.521 1.2970001 4278190080
4.9299998 1.524 1.3789999 4278190080
4.8889999 1.525 1.46 4278190080
4.848 1.528 1.5420001 4278190080
4.809 1.5319999 1.624 4278190080
4.9699998 1.525 1.242 4278190080
4.927 1.525 1.321 4278190080
4.8990002 1.53 1.405 4278190080
4.8590002 1.5319999 1.487 4278190080
4.8169999 1.534 1.568 4278190080
4.7800002 1.54 1.651 4278190080
4.9349999 1.529 1.267 4278190080
4.902 1.5319999 1.349 4278190080
4.8670001 1.535 1.431 4278190080
4.8309999 1.539 1.513 4278190080
4.7919998 1.5420001 1.595 4278190080
4.744 1.544 1.674 4278190080
4.9120002 1.535 1.294 4278190080
4.8699999 1.536 1.374 4278190080
4.8330002 1.538 1.456 4278190080
4.8060002 1.545 1.541 4278190080
4.7600002 1.5470001 1.62 4278190080
4.7199998 1.551 1.702 4278190080
4.8850002 1.54 1.321 4278190080
4.8520002 1.543 1.404 4278190080
4.8150001 1.5470001 1.4859999 4278190080
4.7750001 1.55 1.567 4278190080
4.7270002 1.551 1.645 4278190080
4.6880002 1.556 1.728 4278190080
4.855 1.543 1.348 4278190080
4.8319998 1.55 1.433 4278190080
4.789 1.551 1.513 4278190080
4.743 1.553 1.592 4278190080
4.7049999 1.557 1.674 4278190080
4.6669998 1.563 1.757 4278190080
4.8379998 1.55 1.377 4278190080
4.803 1.553 1.459 4278190080
4.7659998 1.557 1.541 4278190080
4.7210002 1.559 1.62 4278190080
4.6859999 1.5650001 1.704 4278190080
4.645 1.569 1.786 4278190080
4.8099999 1.552 1.403 4278190080
4.7740002 1.5549999 1.485 4278190080
4.743 1.561 1.568 4278190080
4.6999998 1.564 1.649 4278190080
4.658 1.568 1.73 4278190080
4.6110001 1.571 1.8099999 4278190080
4.7909999 1.557 1.432 4278190080
4.7550001 1.5599999 1.513 4278190080
4.7140002 1.563 1.594 4278190080
4.6760001 1.567 1.676 4278190080
4.6339998 1.572 1.757 4278190080
4.5929999 1.577 1.84 4278190080
4.7719998 1.5599999 1.46 4278190080
4.7329998 1.563 1.541 4278190080
4.697 1.568 1.624 4278190080
4.6550002 1.571 1.704 4278190080
4.6160002 1.577 1.7869999 4278190080
4.5689998 1.581 1.868 4278190080
4.7509999 1.563 1.488 4278190080
4.7179999 1.568 1.571 4278190080
4.6760001 1.571 1.651 4278190080
4.6370001 1.576 1.734 4278190080
4.585 1.577 1.812 4278190080
4.5489998 1.585 1.897 4278190080
4.7319999 1.5650001 1.516 4278190080
4.6919999 1.568 1.597 4278190080
4.6560001 1.573 1.679 4278190080
4.612 1.577 1.76 4278190080
4.5710001 1.582 1.8430001 4278190080
4.5279999 1.5880001 1.925 4278190080
4.7119999 1.567 1.544 4278190080
4.6789999 1.572 1.627 4278190080
4.6409998 1.577 1.709 4278190080
4.5960002 1.58 1.79 4278190080
4.5510001 1.585 1.8710001 4278190080
4.5110002 1.592 1.956 4278190080
4.6999998 1.5700001 1.574 4278190080
4.6630001 1.575 1.656 4278190080
4.6199999 1.5779999 1.737 4278190080
4.5830002 1.584 1.821 4278190080
4.533 1.587 1.901 4278190080
4.494 1.595 1.9859999 4278190080
4.6830001 1.571 1.602 4278190080
4.645 1.576 1.684 4278190080
4.605 1.58 1.767 4278190080
4.5560002 1.5829999 1.846 4278190080
4.513 1.589 1.9299999 4278190080
4.4749999 1.597 2.016 4278190080
4.6690001 1.573 1.631 4278190080
4.6409998 1.581 1.7180001 4278190080
4.5929999 1.5829999 1.798 4278190080
4.5500002 1.5880001 1.88 4278190080
4.4990001 1.591 1.96 4278190080
4.4640002 1.601 2.0480001 4278190080
4.6609998 1.575 1.6619999 4278190080
4.6230001 1.58 1.745 4278190080
4.579 1.584 1.827 4278190080
4.533 1.5880001 1.909 4278190080
4.4860001 1.5930001 1.9910001 4278190080
4.448 1.603 2.079 4278190080
4.6490002 1.576 1.692 4278190080
4.6059999 1.579 1.773 4278190080
4.5630002 1.584 1.855 4278190080
4.52 1.589 1.939 4278190080
4.4720001 1.594 2.0220001 4278190080
4.4299998 1.603 2.108 4278190080
4.638 1.576 1.721 4278190080
4.5939999 1.579 1.803 4278190080
4.5580001 1.586 1.8890001 4278190080
4.5089998 1.59 1.97 4278190080
4.4679999 1.598 2.056 4278190080
4.415 1.603 2.1389999 4278190080
4.631 1.577 1.752 4278190080
4.5939999 1.5829999 1.837 4278190080
4.5450001 1.586 1.918 4278190080
4.4990001 1.591 2.0020001 4278190080
4.4520001 1.597 2.086 4278190080
4.4060001 1.605 2.1730001 4278190080
4.6209998 1.576 1.7819999 4278190080
4.5780001 1.58 1.865 4278190080
4.5359998 1.586 1.949 4278190080
4.4910002 1.592 2.0339999 4278190080
4.4400001 1.597 2.1170001 4278190080
4.3930001 1.605 2.204 4278190080
4.6110001 1.574 1.812 4278190080
4.573 1.581 1.897 4278190080
4.5289998 1.586 1.982 4278190080
4.4850001 1.592 2.0680001 4278190080
4.4310002 1.597 2.1500001 4278190080
4.3860002 1.6059999 2.2379999 4278190080
4.6079998 1.574 1.844 4278190080
4.5679998 1.58 1.929 4278190080
4.5229998 1.585 2.013 4278190080
4.4790001 1.592 2.0999999 4278190080
4.4239998 1.597 2.1830001 4278190080
4.375 1.604 2.27 4278190080
4.6030002 1.573 1.874 4278190080
4.5640001 1.579 1.961 4278190080
4.5139999 1.5829999 2.0439999 4278190080
4.4679999 1.59 2.1300001 4278190080
4.4169998 1.596 2.2160001 4278190080
4.3649998 1.603 2.302 4278190080
4.6020002 1.572 1.9069999 4278190080
4.5609999 1.5779999 1.993 4278190080
4.5149999 1.584 2.079 4278190080
4.467 1.59 2.165 4278190080
4.4120002 1.595 2.25 4278190080
4.3470001 1.597 2.3299999 4278190080
4.5970001 1.569 1.937 4278190080
4.5619998 1.577 2.027 4278190080
4.5110002 1.581 2.1110001 4278190080
4.46 1.587 2.197 4278190080
4.4070001 1.5930001 2.283 4278190080
4.2779999 1.573 2.3299999 4278190080
4.5970001 1.567 1.969 4278190080
4.5549998 1.573 2.0569999 4278190080
4.506 1.5779999 2.142 4278190080
4.4549999 1.584 2.2290001 4278190080
4.3670001 1.5779999 2.2980001 4278190080
4.1820002 1.5369999 2.313 4278190080
4.5999999 1.5650001 2.003 4278190080
4.5580001 1.572 2.0910001 4278190080
4.506 1.576 2.1760001 4278190080
4.4530001 1.581 2.263 4278190080
4.3449998 1.568 2.322 4278190080
4.177 1.534 2.346 4278190080
4.6030002 1.563 2.036 4278190080
4.5580001 1.568 2.1229999 4278190080
4.5110002 1.575 2.2119999 4278190080
4.4489999 1.577 2.2950001 4278190080
4.3169999 1.556 2.3410001 4278190080
4.6059999 1.559 2.069 4278190080
4.5580001 1.564 2.1559999 4278190080
4.5050001 1.569 2.243 4278190080
4.3829999 1.55 2.2939999 4278190080
4.191 1.507 2.306 4278190080
4.0079999 1.4680001 2.3180001 4278190080
4.605 1.554 2.099 4278190080
4.5609999 1.5599999 2.1889999 4278190080
4.5100002 1.566 2.277 4278190080
4.3340001 1.529 2.302 4278190080
4.165 1.494 2.325 4278190080
4.006 1.4630001 2.3499999 4278190080
4.6100001 1.55 2.132 4278190080
4.5689998 1.557 2.224 4278190080
4.493 1.5549999 2.3010001 4278190080
4.3299999 1.522 2.332 4278190080
4.1409998 1.4809999 2.3440001 4278190080
4.6160002 1.545 2.165 4278190080
4.573 1.552 2.2579999 4278190080
4.4829998 1.545 2.3280001 4278190080
4.026 1.434 2.3099999 4278190080
4.625 1.541 2.1989999 4278190080
4.5780001 1.546 2.2909999 4278190080
4.3800001 1.502 2.3050001 4278190080
4.1620002 1.451 2.303 4278190080
3.9920001 1.416 2.3210001 4278190080
4.6370001 1.536 2.2349999 4278190080
4.507 1.515 2.2850001 4278190080
4.1570001 1.442 2.3299999 4278190080
3.9779999 1.405 2.3429999 4278190080
4.6459999 1.53 2.2679999 4278190080
4.4819999 1.497 2.302 4278190080
4.1170001 1.42 2.3369999 4278190080
4.6389999 1.518 2.293 4278190080
4.473 1.485 2.325 4278190080
4.013 1.375 2.3050001 4278190080
4.6230001 1.502 2.313 4278190080
4.381 1.444 2.3050001 4278190080
4.1560001 1.391 2.299 4278190080
3.974 1.353 2.3099999 4278190080
4.1339998 1.374 2.313 4278190080
3.974 1.3430001 2.3369999 4278190080
4.467 1.428 2.286 4278190080
4.131 1.3609999 2.336 4278190080
4.4580002 1.4119999 2.3069999 4278190080
4.4229999 1.388 2.312 4278190080
4.1919999 1.335 2.3039999 4278190080
3.9690001 1.284 2.2920001 4278190080
3.9460001 1.2640001 2.3010001 4278190080
4.2880001 1.318 2.286 4278190080
3.9449999 1.25 2.323 4278190080
4.2820001 1.301 2.3039999 4278190080
3.9159999 1.227 2.326 4278190080
4.2740002 1.283 2.3199999 4278190080
4.0669999 1.239 2.319 4278190080
4.2199998 1.25 2.309 4278190080
4.0029998 1.204 2.302 4278190080
4.098 1.181 2.277 4278190080
4.0760002 1.158 2.2809999 4278190080
4.0679998 1.138 2.2920001 4278190080
4.0669999 1.119 2.3050001 4278190080
4.0510001 1.096 2.3099999 4278190080
4.0190001 1.068 2.303 4278190080
3.665 0.64300001 -0.93900001 4278190080
3.507 0.65899998 -0.93099999 4278190080
3.4389999 0.66799998 -0.92900002 4278190080
3.3659999 0.67500001 -0.92400002 4278190080
3.6340001 0.73000002 -0.93099999 4278190080
3.302 0.68400002 -0.921 4278190080
3.5610001 0.73900002 -0.92699999 4278190080
3.247 0.69400001 -0.92000002 4278190080
3.4909999 0.74699998 -0.92400002 4278190080
3.1860001 0.70200002 -0.91600001 4278190080
3.4230001 0.755 -0.92000002 4278190080
3.125 0.70999998 -0.912 4278190080
3.3599999 0.76300001 -0.917 4278190080
3.066 0.71799999 -0.90799999 4278190080
3.0190001 0.727 -0.90600002 4278190080
2.973 0.73699999 -0.90399998 4278190080
3.1919999 0.79100001 -0.90799999 4278190080
2.924 0.745 -0.89999998 4278190080
3.1429999 0.80000001 -0.90600002 4278190080
2.8889999 0.75700003 -0.89999998 4278190080
3.099 0.81099999 -0.90399998 4278190080
2.8340001 0.76300001 -0.89399999 4278190080
3.0510001 0.81999999 -0.90100002 4278190080
3.2750001 0.87900001 -0.90399998 4278190080
2.8050001 0.77600002 -0.89499998 4278190080
3.0039999 0.829 -0.898 4278190080
3.227 0.889 -0.90100002 4278190080
2.7650001 0.78500003 -0.89200002 4278190080
2.961 0.83899999 -0.89499998 4278190080
3.1830001 0.89999998 -0.89899999 4278190080
2.7320001 0.796 -0.88999999 4278190080
2.9200001 0.84899998 -0.89200002 4278190080
3.135 0.90899998 -0.89600003 4278190080
2.7 0.80699998 -0.889 4278190080
2.8789999 0.85799998 -0.889 4278190080
3.098 0.921 -0.89399999 4278190080
3.3340001 0.99000001 -0.89700001 4278190080
2.6659999 0.81699997 -0.88599998 4278190080
2.842 0.86799997 -0.88599998 4278190080
3.059 0.93199998 -0.89200002 4278190080
3.2869999 0.99900001 -0.89399999 4278190080
3.552 1.0779999 -0.89700001 4278190080
2.6329999 0.82700002 -0.884 4278190080
2.812 0.88 -0.88499999 4278190080
3.0139999 0.94099998 -0.88800001 4278190080
3.2490001 1.012 -0.89200002 4278190080
3.5090001 1.091 -0.89499998 4278190080
2.5999999 0.83600003 -0.88 4278190080
2.77 0.88800001 -0.88 4278190080
2.983 0.95300001 -0.88599998 4278190080
3.21 1.023 -0.88999999 4278190080
3.4660001 1.102 -0.89300001 4278190080
2.579 0.84899998 -0.88 4278190080
2.7539999 0.903 -0.88200003 4278190080
2.95 0.96399999 -0.884 4278190080
3.1719999 1.034 -0.88700002 4278190080
3.425 1.114 -0.88999999 4278190080
3.7149999 1.206 -0.89399999 4278190080
2.553 0.86000001 -0.87800002 4278190080
2.7309999 0.91600001 -0.88200003 4278190080
2.918 0.97600001 -0.88200003 4278190080
3.1400001 1.0470001 -0.88599998 4278190080
3.3859999 1.126 -0.88800001 4278190080
3.6730001 1.219 -0.89099997 4278190080
2.5280001 0.87199998 -0.87699997 4278190080
2.6989999 0.92699999 -0.87900001 4278190080
2.8900001 0.98900002 -0.88099998 4278190080
3.109 1.0599999 -0.884 4278190080
3.352 1.14 -0.88599998 4278190080
3.631 1.232 -0.889 4278190080
2.4990001 0.88200003 -0.87300003 4278190080
2.6760001 0.94 -0.87800002 4278190080
2.859 1 -0.87800002 4278190080
3.075 1.072 -0.88099998 4278190080
3.3180001 1.153 -0.884 4278190080
3.5899999 1.245 -0.88599998 4278190080
2.4779999 0.89399999 -0.87199998 4278190080
2.648 0.95099998 -0.87400001 4278190080
2.8310001 1.012 -0.875 4278190080
3.0469999 1.085 -0.87900001 4278190080
3.286 1.1670001 -0.88200003 4278190080
3.5539999 1.2589999 -0.88300002 4278190080
2.461 0.90700001 -0.87099999 4278190080
2.6300001 0.96499997 -0.87400001 4278190080
2.806 1.025 -0.87300003 4278190080
3.02 1.098 -0.87699997 4278190080
3.2520001 1.179 -0.87900001 4278190080
3.52 1.273 -0.88099998 4278190080
2.441 0.91900003 -0.86900002 4278190080
2.6059999 0.97600001 -0.87099999 4278190080
2.7780001 1.036 -0.87 4278190080
2.9979999 1.114 -0.87599999 4278190080
3.223 1.193 -0.87599999 4278190080
3.487 1.2869999 -0.87800002 4278190080
2.4230001 0.93199998 -0.86799997 4278190080
2.5869999 0.99000001 -0.87 4278190080
2.7609999 1.051 -0.86900002 4278190080
2.973 1.127 -0.87400001 4278190080
3.2030001 1.21 -0.87599999 4278190080
3.457 1.302 -0.87599999 4278190080
2.404 0.94400001 -0.86500001 4278190080
2.569 1.003 -0.86799997 4278190080
2.744 1.066 -0.86799997 4278190080
2.9489999 1.141 -0.87099999 4278190080
3.1700001 1.222 -0.87099999 4278190080
3.424 1.316 -0.87199998 4278190080
2.388 0.958 -0.86400002 4278190080
2.5450001 1.015 -0.86400002 4278190080
2.7279999 1.082 -0.86699998 4278190080
2.924 1.154 -0.86799997 4278190080
3.148 1.238 -0.86900002 4278190080
3.4000001 1.332 -0.87 4278190080
2.3670001 0.96899998 -0.86000001 4278190080
2.5309999 1.029 -0.86299998 4278190080
2.7060001 1.095 -0.86400002 4278190080
2.904 1.169 -0.866 4278190080
3.1270001 1.253 -0.86699998 4278190080
3.3800001 1.35 -0.86900002 4278190080
2.355 0.98299998 -0.85900003 4278190080
2.5150001 1.043 -0.861 4278190080
2.6960001 1.112 -0.86400002 4278190080
2.888 1.1849999 -0.86400002 4278190080
3.109 1.27 -0.866 4278190080
3.3610001 1.368 -0.86699998 4278190080
2.346 0.99800003 -0.85900003 4278190080
2.503 1.058 -0.86000001 4278190080
2.6700001 1.122 -0.85900003 4278190080
2.868 1.199 -0.861 4278190080
3.0940001 1.288 -0.86400002 4278190080
3.345 1.387 -0.866 4278190080
2.3329999 1.012 -0.85699999 4278190080
2.49 1.073 -0.85799998 4278190080
2.661 1.1390001 -0.85799998 4278190080
2.8529999 1.215 -0.85900003 4278190080
3.0780001 1.3049999 -0.86199999 4278190080
3.322 1.403 -0.86199999 4278190080
2.3239999 1.027 -0.85600001 4278190080
2.48 1.089 -0.85699999 4278190080
2.651 1.1569999 -0.85799998 4278190080
2.842 1.233 -0.85799998 4278190080
3.062 1.322 -0.85900003 4278190080
3.3039999 1.42 -0.85900003 4278190080
2.3150001 1.0420001 -0.85500002 4278190080
2.4719999 1.105 -0.85600001 4278190080
2.642 1.173 -0.85600001 4278190080
2.8310001 1.25 -0.85600001 4278190080
3.0510001 1.341 -0.85799998 4278190080
3.2839999 1.437 -0.85500002 4278190080
2.303 1.0549999 -0.85100001 4278190080
2.4579999 1.118 -0.85299999 4278190080
2.6300001 1.189 -0.85399997 4278190080
2.8199999 1.267 -0.85399997 4278190080
3.04 1.359 -0.85600001 4278190080
3.273 1.457 -0.85299999 4278190080
2.2950001 1.0700001 -0.85000002 4278190080
2.454 1.136 -0.852 4278190080
2.6289999 1.209 -0.85399997 4278190080
2.8169999 1.288 -0.85399997 4278190080
3.0320001 1.3789999 -0.85399997 4278190080
3.2639999 1.478 -0.85100001 4278190080
2.2920001 1.0880001 -0.84899998 4278190080
2.444 1.151 -0.84899998 4278190080
2.6210001 1.226 -0.852 4278190080
2.806 1.3049999 -0.85100001 4278190080
3.023 1.398 -0.852 4278190080
3.263 1.502 -0.85100001 4278190080
2.2809999 1.101 -0.84600002 4278190080
2.4419999 1.17 -0.84899998 4278190080
2.6110001 1.242 -0.84899998 4278190080
2.8039999 1.326 -0.85000002 4278190080
3.017 1.419 -0.84899998 4278190080
3.2579999 1.525 -0.84899998 4278190080
2.279 1.119 -0.84500003 4278190080
2.4419999 1.1900001 -0.84899998 4278190080
2.608 1.261 -0.847 4278190080
2.8 1.346 -0.84799999 4278190080
3.0139999 1.4400001 -0.84799999 4278190080
3.256 1.548 -0.847 4278190080
2.279 1.137 -0.84399998 4278190080
2.438 1.207 -0.847 4278190080
2.6029999 1.279 -0.84500003 4278190080
2.8039999 1.369 -0.84799999 4278190080
3.013 1.4630001 -0.84600002 4278190080
3.253 1.571 -0.84500003 4278190080
2.277 1.154 -0.84299999 4278190080
2.4349999 1.225 -0.84399998 4278190080
2.599 1.2970001 -0.84200001 4278190080
2.8 1.3890001 -0.84500003 4278190080
3.0120001 1.485 -0.84399998 4278190080
3.253 1.596 -0.84299999 4278190080
2.2739999 1.171 -0.84100002 4278190080
2.4319999 1.242 -0.84200001 4278190080
2.605 1.3200001 -0.84200001 4278190080
2.7950001 1.4069999 -0.84200001 4278190080
3.0179999 1.51 -0.84299999 4278190080
3.2550001 1.6210001 -0.84100002 4278190080
2.2739999 1.189 -0.83899999 4278190080
2.4260001 1.258 -0.838 4278190080
2.6059999 1.341 -0.84100002 4278190080
2.8050001 1.434 -0.84200001 4278190080
3.0150001 1.5319999 -0.83999997 4278190080
3.256 1.646 -0.838 4278190080
2.2820001 1.211 -0.83999997 4278190080
2.438 1.283 -0.83999997 4278190080
2.612 1.364 -0.83999997 4278190080
2.8069999 1.456 -0.83999997 4278190080
3.0220001 1.557 -0.838 4278190080
3.2709999 1.677 -0.838 4278190080
2.286 1.2309999 -0.83899999 4278190080
2.441 1.303 -0.838 4278190080
2.618 1.387 -0.83899999 4278190080
2.8099999 1.479 -0.838 4278190080
3.03 1.584 -0.83700001 4278190080
3.2479999 1.689 -0.82800001 4278190080
2.2880001 1.25 -0.83600003 4278190080
2.441 1.322 -0.83499998 4278190080
2.622 1.409 -0.83600003 4278190080
2.8139999 1.502 -0.83499998 4278190080
3.04 1.612 -0.83499998 4278190080
3.2079999 1.692 -0.81300002 4278190080
2.296 1.271 -0.83600003 4278190080
2.45 1.345 -0.83399999 4278190080
2.6300001 1.433 -0.83499998 4278190080
2.8269999 1.529 -0.83399999 4278190080
3.0480001 1.638 -0.833 4278190080
3.168 1.694 -0.79799998 4278190080
2.299 1.291 -0.833 4278190080
2.4619999 1.37 -0.83399999 4278190080
2.642 1.459 -0.83399999 4278190080
2.8399999 1.557 -0.833 4278190080
3.0580001 1.666 -0.82999998 4278190080
3.1370001 1.699 -0.78399998 4278190080
2.309 1.313 -0.83200002 4278190080
2.471 1.393 -0.83200002 4278190080
2.654 1.484 -0.833 4278190080
2.8529999 1.584 -0.83099997 4278190080
3.0780001 1.698 -0.829 4278190080
3.1110001 1.707 -0.77100003 4278190080
2.3199999 1.336 -0.83099997 4278190080
2.483 1.4170001 -0.83099997 4278190080
2.6619999 1.508 -0.82999998 4278190080
2.868 1.612 -0.829 4278190080
3.075 1.717 -0.82200003 4278190080
3.0810001 1.712 -0.75700003 4278190080
2.3310001 1.359 -0.82999998 4278190080
2.4960001 1.442 -0.82999998 4278190080
2.675 1.533 -0.82800001 4278190080
2.8840001 1.641 -0.82700002 4278190080
3.063 1.732 -0.81199998 4278190080
3.063 1.722 -0.74599999 4278190080
2.3429999 1.382 -0.829 4278190080
2.5120001 1.4680001 -0.829 4278190080
2.6930001 1.562 -0.82700002 4278190080
2.902 1.671 -0.82599998 4278190080
3.033 1.735 -0.796 4278190080
3.0420001 1.73 -0.73299998 4278190080
2.3529999 1.404 -0.82599998 4278190080
2.529 1.495 -0.82800001 4278190080
2.7079999 1.589 -0.824 4278190080
2.925 1.7029999 -0.824 4278190080
3.0190001 1.747 -0.78500003 4278190080
3.0179999 1.7359999 -0.72000003 4278190080
2.3710001 1.4299999 -0.82499999 4278190080
2.546 1.522 -0.82599998 4278190080
2.73 1.619 -0.82300001 4278190080
2.9449999 1.734 -0.82200003 4278190080
2.997 1.753 -0.76999998 4278190080
2.9979999 1.744 -0.70599997 4278190080
2.392 1.4579999 -0.82499999 4278190080
2.562 1.548 -0.824 4278190080
2.7539999 1.651 -0.82200003 4278190080
2.964 1.7640001 -0.81800002 4278190080
2.97 1.756 -0.755 4278190080
2.9749999 1.749 -0.69199997 4278190080
2.408 1.483 -0.82300001 4278190080
2.5799999 1.575 -0.82099998 4278190080
2.777 1.682 -0.81999999 4278190080
2.96 1.78 -0.80800003 4278190080
2.957 1.766 -0.74199998 4278190080
2.9619999 1.7589999 -0.68000001 4278190080
2.4300001 1.512 -0.82200003 4278190080
2.605 1.6059999 -0.81999999 4278190080
2.806 1.716 -0.81900001 4278190080
2.951 1.7920001 -0.79500002 4278190080
2.9489999 1.779 -0.73000002 4278190080
2.948 1.7690001 -0.667 4278190080
2.451 1.539 -0.82099998 4278190080
2.6300001 1.637 -0.81900001 4278190080
2.835 1.75 -0.81800002 4278190080
2.948 1.807 -0.78399998 4278190080
2.9430001 1.793 -0.71899998 4278190080
2.948 1.786 -0.65700001 4278190080
2.4760001 1.569 -0.81999999 4278190080
2.661 1.671 -0.81800002 4278190080
2.8670001 1.786 -0.81599998 4278190080
2.954 1.8279999 -0.77499998 4278190080
2.948 1.812 -0.70899999 4278190080
2.9449999 1.8 -0.64499998 4278190080
2.5050001 1.601 -0.81900001 4278190080
2.687 1.702 -0.81599998 4278190080
2.8989999 1.822 -0.81400001 4278190080
2.9530001 1.8430001 -0.764 4278190080
2.9519999 1.831 -0.699 4278190080
2.9530001 1.821 -0.63599998 4278190080
2.53 1.63 -0.81699997 4278190080
2.7179999 1.7359999 -0.81400001 4278190080
2.9360001 1.86 -0.81300002 4278190080
2.961 1.863 -0.75400001 4278190080
2.961 1.851 -0.68900001 4278190080
2.957 1.839 -0.62599999 4278190080
2.563 1.664 -0.81699997 4278190080
2.9619999 1.892 -0.80800003 4278190080
2.9560001 1.875 -0.74000001 4278190080
2.964 1.868 -0.67799997 4278190080
2.9549999 1.853 -0.61299998 4278190080
2.5929999 1.696 -0.815 4278190080
2.9779999 1.916 -0.79900002 4278190080
2.96 1.891 -0.72799999 4278190080
2.9679999 1.885 -0.66600001 4278190080
2.9679999 1.875 -0.60299999 4278190080
2.622 1.727 -0.81099999 4278190080
2.984 1.933 -0.787 4278190080
2.97 1.9119999 -0.71799999 4278190080
2.97 1.9 -0.65399998 4278190080
2.97 1.891 -0.59100002 4278190080
2.9820001 1.9450001 -0.773 4278190080
2.98 1.931 -0.70599997 4278190080
2.977 1.918 -0.64099997 4278190080
2.977 1.908 -0.579 4278190080
2.9960001 1.966 -0.76200002 4278190080
2.9809999 1.944 -0.69199997 4278190080
2.9809999 1.933 -0.62800002 4278190080
2.9790001 1.921 -0.565 4278190080
2.964 1.971 -0.80500001 4278190080
2.9960001 1.977 -0.74699998 4278190080
2.99 1.961 -0.68000001 4278190080
2.98 1.943 -0.61400002 4278190080
2.987 1.938 -0.55199999 4278190080
3.0020001 1.992 -0.73299998 4278190080
2.9949999 1.975 -0.66600001 4278190080
2.9920001 1.962 -0.60100001 4278190080
2.9879999 1.95 -0.53799999 4278190080
3.0050001 2.0039999 -0.71799999 4278190080
2.993 1.984 -0.64999998 4278190080
2.99 1.971 -0.58600003 4278190080
2.9979999 1.967 -0.52399999 4278190080
3.0050001 2.013 -0.70200002 4278190080
2.9990001 1.997 -0.63599998 4278190080
2.997 1.985 -0.57200003 4278190080
2.997 1.976 -0.509 4278190080
2.938 2.0050001 -0.801 4278190080
3.0090001 2.0239999 -0.68699998 4278190080
3.0039999 2.0079999 -0.62099999 4278190080
2.9990001 1.995 -0.55599999 4278190080
3.0020001 1.988 -0.49399999 4278190080
3.0090001 2.0309999 -0.67000002 4278190080
3.0020001 2.0139999 -0.60399997 4278190080
3.0039999 2.006 -0.54100001 4278190080
3.003 1.9960001 -0.47799999 4278190080
3.016 2.0420001 -0.65499997 4278190080
3.0079999 2.026 -0.58899999 4278190080
3.0039999 2.013 -0.52399999 4278190080
3.0090001 2.007 -0.463 4278190080
3.0239999 2.053 -0.639 4278190080
3.0120001 2.0339999 -0.57200003 4278190080
3.0039999 2.0190001 -0.50800002 4278190080
3.0109999 2.0150001 -0.44600001 4278190080
3.1259999 2.1559999 -0.77899998 4278190080
3.0220001 2.0569999 -0.62099999 4278190080
3.016 2.0420001 -0.55500001 4278190080
3.01 2.0280001 -0.491 4278190080
3.0120001 2.0220001 -0.42899999 4278190080
3.118 2.1530001 -0.75700003 4278190080
3.0250001 2.062 -0.60399997 4278190080
3.0179999 2.0469999 -0.53799999 4278190080
3.0050001 2.029 -0.47299999 4278190080
3.0090001 2.0250001 -0.412 4278190080
3.118 2.1559999 -0.73799998 4278190080
3.1029999 2.131 -0.667 4278190080
3.0280001 2.0680001 -0.58600003 4278190080
3.0239999 2.0539999 -0.52100003 4278190080
3.0109999 2.0369999 -0.45699999 4278190080
3.0109999 2.03 -0.39500001 4278190080
3.1140001 2.154 -0.71700001 4278190080
3.1170001 2.142 -0.64999998 4278190080
3.036 2.075 -0.56900001 4278190080
3.0209999 2.0550001 -0.50300002 4278190080
3.0139999 2.0420001 -0.43900001 4278190080
3.0150001 2.036 -0.37799999 4278190080
3.1040001 2.148 -0.69499999 4278190080
3.1099999 2.138 -0.63 4278190080
3.053 2.0880001 -0.55400002 4278190080
3.023 2.0580001 -0.48500001 4278190080
3.016 2.0450001 -0.42199999 4278190080
3.016 2.039 -0.36000001 4278190080
3.1059999 2.148 -0.676 4278190080
3.1129999 2.141 -0.611 4278190080
3.072 2.1010001 -0.53799999 4278190080
3.02 2.056 -0.46599999 4278190080
3.016 2.046 -0.40400001 4278190080
3.0190001 2.0420001 -0.34299999 4278190080
3.1010001 2.1440001 -0.65499997 4278190080
3.1140001 2.1400001 -0.59200001 4278190080
3.076 2.1029999 -0.51999998 4278190080
3.0220001 2.0569999 -0.44800001 4278190080
3.0150001 2.0450001 -0.38499999 4278190080
3.02 2.043 -0.32499999 4278190080
3.1029999 2.1429999 -0.63599998 4278190080
3.1110001 2.1359999 -0.57099998 4278190080
3.066 2.095 -0.49900001 4278190080
3.0209999 2.056 -0.42899999 4278190080
3.017 2.046 -0.36700001 4278190080
3.02 2.0420001 -0.30599999 4278190080
3.1070001 2.142 -0.616 4278190080
3.108 2.131 -0.551 4278190080
3.04 2.075 -0.47600001 4278190080
3.023 2.0550001 -0.41100001 4278190080
3.0190001 2.046 -0.34900001 4278190080
3.0209999 2.0420001 -0.28799999 4278190080
3.109 2.1400001 -0.597 4278190080
3.0910001 2.115 -0.528 4278190080
3.0280001 2.063 -0.45500001 4278190080
3.023 2.052 -0.39199999 4278190080
3.013 2.039 -0.33000001 4278190080
3.017 2.0369999 -0.27000001 4278190080
3.109 2.1340001 -0.57599998 4278190080
3.0450001 2.0799999 -0.50099999 4278190080
3.0190001 2.053 -0.43399999 4278190080
3.0179999 2.0450001 -0.373 4278190080
3.013 2.036 -0.31099999 4278190080
3.0280001 2.0420001 -0.252 4278190080
3.075 2.105 -0.55000001 4278190080
3.027 2.062 -0.479 4278190080
3.0239999 2.0510001 -0.41600001 4278190080
3.0179999 2.0409999 -0.354 4278190080
3.0150001 2.033 -0.29300001 4278190080
3.0469999 2.0510001 -0.236 4278190080
3.027 2.0650001 -0.52200001 4278190080
3.03 2.0580001 -0.46000001 4278190080
3.0239999 2.046 -0.39700001 4278190080
3.0079999 2.0280001 -0.33399999 4278190080
3.0090001 2.0239999 -0.27399999 4278190080
3.0369999 2.039 -0.21600001 4278190080
3.0320001 2.062 -0.50400001 4278190080
3.0179999 2.043 -0.43900001 4278190080
3.0179999 2.036 -0.37799999 4278190080
3.01 2.0239999 -0.31600001 4278190080
3.0250001 2.029 -0.257 4278190080
3.016 2.02 -0.19599999 4278190080
3.026 2.049 -0.48300001 4278190080
3.02 2.036 -0.41999999 4278190080
3.016 2.026 -0.35800001 4278190080
3.007 2.0150001 -0.29699999 4278190080
3.039 2.0320001 -0.23999999 4278190080
3.0179999 2.0150001 -0.178 4278190080
3.0179999 2.0350001 -0.46200001 4278190080
3.016 2.0250001 -0.40099999 4278190080
3.0109999 2.0150001 -0.33899999 4278190080
3.0050001 2.006 -0.27900001 4278190080
3.0409999 2.026 -0.222 4278190080
3.0150001 2.006 -0.16 4278190080
3.0220001 2.0280001 -0.44400001 4278190080
3.0090001 2.0109999 -0.38100001 4278190080
3.003 2.0009999 -0.31999999 4278190080
3.0190001 2.006 -0.26100001 4278190080
3.027 2.0079999 -0.20200001 4278190080
3.198 2.119 -0.15099999 4278190080
3.0150001 2.0120001 -0.42399999 4278190080
3.0109999 2.003 -0.36300001 4278190080
3.0050001 1.993 -0.30199999 4278190080
3.0220001 1.999 -0.243 4278190080
3.017 1.993 -0.184 4278190080
3.171 2.0929999 -0.131 4278190080
3.0150001 2.0009999 -0.405 4278190080
3.003 1.987 -0.34299999 4278190080
2.9849999 1.969 -0.28200001 4278190080
3.0090001 1.9809999 -0.22400001 4278190080
3.017 1.983 -0.16599999 4278190080
3.1800001 2.089 -0.112 4278190080
3.0020001 1.9809999 -0.38499999 4278190080
3.0020001 1.975 -0.32499999 4278190080
3.0380001 1.993 -0.26800001 4278190080
3.0079999 1.969 -0.207 4278190080
3.1619999 2.0680001 -0.155 4278190080
3.1930001 2.0869999 -0.093999997 4278190080
2.9990001 1.967 -0.366 4278190080
2.9990001 1.96 -0.30700001 4278190080
3.0239999 1.972 -0.249 4278190080
2.9920001 1.948 -0.18799999 4278190080
3.201 2.0810001 -0.139 4278190080
3.1930001 2.075 -0.075999998 4278190080
2.9949999 1.951 -0.34799999 4278190080
2.9719999 1.9299999 -0.28600001 4278190080
3.0120001 1.952 -0.23100001 4278190080
3.0120001 1.948 -0.17200001 4278190080
3.2190001 2.0799999 -0.121 4278190080
3.2049999 2.0710001 -0.057999998 4278190080
2.9920001 1.9349999 -0.329 4278190080
2.983 1.924 -0.27000001 4278190080
2.9809999 1.919 -0.211 4278190080
3.1300001 2.0120001 -0.161 4278190080
3.2360001 2.0780001 -0.103 4278190080
3.2160001 2.0650001 -0.039999999 4278190080
2.9890001 1.919 -0.31200001 4278190080
3.0120001 1.928 -0.255 4278190080
2.994 1.913 -0.19499999 4278190080
3.2309999 2.063 -0.148 4278190080
3.233 2.063 -0.085000001 4278190080
3.2260001 2.0580001 -0.022 4278190080
2.9879999 1.904 -0.29499999 4278190080
2.971 1.888 -0.235 4278190080
2.9890001 1.896 -0.178 4278190080
3.266 2.069 -0.131 4278190080
3.2490001 2.0580001 -0.068000004 4278190080
3.244 2.0550001 -0.0049999999 4278190080
2.9590001 1.87 -0.27500001 4278190080
2.9920001 1.886 -0.22 4278190080
3.2820001 2.0639999 -0.114 4278190080
3.2679999 2.0539999 -0.050000001 4278190080
3.2639999 2.052 0.012 4278190080
2.9990001 1.8789999 -0.26199999 4278190080
2.993 1.8710001 -0.20299999 4278190080
3.2739999 2.0439999 -0.15899999 4278190080
3.302 2.0599999 -0.097000003 4278190080
3.2850001 2.049 -0.033 4278190080
3.2780001 2.046 0.028999999 4278190080
2.971 1.846 -0.243 4278190080
2.9849999 1.851 -0.18700001 4278190080
3.306 2.0469999 -0.14300001 4278190080
3.309 2.0469999 -0.079000004 4278190080
3.3 2.0409999 -0.016000001 4278190080
3.296 2.04 0.046 4278190080
2.9460001 1.813 -0.22499999 4278190080
3.0009999 1.844 -0.17200001 4278190080
3.335 2.0469999 -0.127 4278190080
3.3269999 2.04 -0.063000001 4278190080
3.316 2.0339999 0 4278190080
3.309 2.0309999 0.063000001 4278190080
2.9579999 1.804 -0.211 4278190080
3.283 1.998 -0.171 4278190080
3.355 2.04 -0.11 4278190080
3.349 2.0350001 -0.046 4278190080
3.339 2.03 0.017000001 4278190080
3.3310001 2.027 0.081 4278190080
2.957 1.786 -0.19499999 4278190080
3.3610001 2.026 -0.15800001 4278190080
3.3740001 2.0320001 -0.093999997 4278190080
3.3659999 2.027 -0.029999999 4278190080
3.358 2.023 0.034000002 4278190080
3.352 2.0209999 0.097000003 4278190080
2.9679999 1.774 -0.18099999 4278190080
3.3940001 2.026 -0.14300001 4278190080
3.3959999 2.026 -0.078000002 4278190080
3.3900001 2.0209999 -0.013 4278190080
3.3740001 2.013 0.050000001 4278190080
3.3710001 2.013 0.114 4278190080
3.4170001 2.0179999 -0.127 4278190080
3.415 2.016 -0.061999999 4278190080
3.414 2.0150001 0.0020000001 4278190080
3.4000001 2.0079999 0.067000002 4278190080
3.3959999 2.0079999 0.131 4278190080
3.4389999 2.01 -0.111 4278190080
3.441 2.01 -0.046 4278190080
3.4349999 2.007 0.017999999 4278190080
3.424 2.0009999 0.082999997 4278190080
3.4159999 1.999 0.147 4278190080
3.477 2.0120001 -0.162 4278190080
3.4690001 2.0050001 -0.096000001 4278190080
3.461 2 -0.030999999 4278190080
3.4590001 1.999 0.034000002 4278190080
3.4489999 1.995 0.098999999 4278190080
3.4449999 1.995 0.164 4278190080
3.5009999 2.003 -0.147 4278190080
3.4960001 1.998 -0.081 4278190080
3.4920001 1.995 -0.015 4278190080
3.4890001 1.994 0.048999999 4278190080
3.4749999 1.988 0.115 4278190080
3.464 1.984 0.18000001 4278190080
3.5190001 1.99 -0.132 4278190080
3.5150001 1.9859999 -0.066 4278190080
3.5150001 1.985 0 4278190080
3.5109999 1.984 0.064999998 4278190080
3.4990001 1.978 0.13 4278190080
3.4920001 1.978 0.19599999 4278190080
3.507 1.96 -0.117 4278190080
3.506 1.957 -0.050999999 4278190080
3.516 1.962 0.014 4278190080
3.527 1.969 0.079999998 4278190080
3.5239999 1.97 0.146 4278190080
3.523 1.972 0.212 4278190080
3.503 1.933 -0.102 4278190080
3.5039999 1.932 -0.035999998 4278190080
3.5020001 1.931 0.028000001 4278190080
3.516 1.9400001 0.093999997 4278190080
3.516 1.942 0.16 4278190080
3.523 1.949 0.226 4278190080
3.493 1.904 -0.086999997 4278190080
3.4979999 1.905 -0.022 4278190080
3.5020001 1.9069999 0.041999999 4278190080
3.5079999 1.911 0.107 4278190080
3.5120001 1.916 0.17299999 4278190080
3.5190001 1.923 0.23999999 4278190080
3.4920001 1.878 -0.072999999 4278190080
3.493 1.878 -0.0089999996 4278190080
3.494 1.878 0.055 4278190080
3.493 1.8789999 0.12 4278190080
3.4979999 1.8839999 0.186 4278190080
3.5090001 1.893 0.252 4278190080
3.48 1.847 -0.059999999 4278190080
3.483 1.848 0.003 4278190080
3.487 1.85 0.068000004 4278190080
3.4920001 1.854 0.133 4278190080
3.4949999 1.858 0.198 4278190080
3.5039999 1.867 0.264 4278190080
3.4809999 1.823 -0.046999998 4278190080
3.4790001 1.821 0.016000001 4278190080
3.48 1.822 0.079999998 4278190080
3.4860001 1.826 0.145 4278190080
3.4909999 1.831 0.20999999 4278190080
3.4960001 1.8380001 0.27599999 4278190080
3.471 1.7920001 -0.035 4278190080
3.4649999 1.789 0.028000001 4278190080
3.4790001 1.796 0.092 4278190080
3.4820001 1.799 0.15700001 4278190080
3.483 1.803 0.222 4278190080
3.4879999 1.808 0.287 4278190080
3.4590001 1.761 -0.023 4278190080
3.46 1.761 0.039999999 4278190080
