# .PCD v0.7 - Point Cloud Data file format
VERSION 0.7
FIELDS x y z rgb
SIZE 4 4 4 4
TYPE F F F U
COUNT 1 1 1 1
WIDTH 1310
HEIGHT 1
VIEWPOINT 0 0 0 1 0 0 0
POINTS 1310
DATA ascii
3.2290001 -0.29699999 2.2 4281687631
3.0799999 -0.29100001 2.2019999 4281687631
2.9260001 -0.285 2.198 4281687631
2.793 -0.28200001 2.2060001 4281687631
3.5280001 -0.32699999 2.1860001 4281687631
3.3800001 -0.322 2.197 4281687631
3.2219999 -0.315 2.1960001 4281687631
3.0699999 -0.30899999 2.1960001 4281687631
2.925 -0.30399999 2.197 4281687631
2.796 -0.30000001 2.207 4281687631
3.5239999 -0.34599999 2.184 4281687631
3.3740001 -0.34099999 2.191 4281687631
3.221 -0.33399999 2.194 4281687631
3.069 -0.32800001 2.194 4281687631
2.9260001 -0.32300001 2.1960001 4281687631
2.796 -0.31900001 2.2060001 4281687631
3.52 -0.366 2.1800001 4281687631
3.3699999 -0.359 2.188 4281687631
3.2149999 -0.35299999 2.1889999 4281687631
3.0650001 -0.34599999 2.1889999 4281687631
2.9159999 -0.34 2.187 4281687631
2.8039999 -0.338 2.21 4281687631
3.5079999 -0.384 2.1700001 4281687631
3.3659999 -0.37799999 2.1819999 4281687631
3.2119999 -0.37099999 2.184 4281687631
3.0639999 -0.36500001 2.1860001 4281687631
2.921 -0.35800001 2.188 4281687631
2.8010001 -0.35499999 2.204 4281687631
3.516 -0.40400001 2.1719999 4281687631
3.3599999 -0.396 2.175 4281687631
3.21 -0.38999999 2.1789999 4281687631
3.0639999 -0.38299999 2.1819999 4281687631
2.931 -0.37799999 2.191 4281687631
2.825 -0.37599999 2.2179999 4281687631
3.507 -0.42199999 2.1619999 4281687631
3.358 -0.41499999 2.1689999 4281687631
3.211 -0.40799999 2.175 4281687631
3.066 -0.40099999 2.178 4281687631
2.937 -0.39700001 2.1900001 4281687631
2.8599999 -0.39899999 2.2409999 4281687631
3.5139999 -0.442 2.161 4281687631
3.362 -0.43399999 2.1670001 4281687631
3.2179999 -0.42699999 2.174 4281687631
3.0810001 -0.421 2.184 4281687631
2.9619999 -0.41800001 2.2030001 4281687631
2.881 -0.41999999 2.2509999 4281687631
3.5209999 -0.46200001 2.1600001 4281687631
3.365 -0.45300001 2.1630001 4281687631
3.2320001 -0.44800001 2.178 4281687631
3.0940001 -0.44100001 2.1860001 4281687631
2.9909999 -0.43900001 2.2179999 4281687631
2.8859999 -0.43799999 2.2479999 4281687631
3.536 -0.48199999 2.1619999 4281687631
3.3840001 -0.47400001 2.168 4281687631
3.2550001 -0.46799999 2.1860001 4281687631
3.1240001 -0.463 2.1989999 4281687631
3.017 -0.461 2.2290001 4281687631
2.8800001 -0.45500001 2.234 4281687631
3.5680001 -0.505 2.174 4281687631
3.418 -0.49700001 2.1819999 4281687631
3.29 -0.49200001 2.201 4281687631
3.158 -0.486 2.2149999 4281687631
3.023 -0.479 2.2249999 4281687631
2.875 -0.47099999 2.221 4281687631
3.6040001 -0.52899998 2.188 4281687631
3.4519999 -0.51999998 2.1949999 4281687631
3.3210001 -0.51300001 2.2130001 4281687631
3.1700001 -0.50400001 2.214 4281687631
3.0220001 -0.49599999 2.214 4281687631
2.869 -0.486 2.207 4281687631
3.6270001 -0.551 2.1919999 4281687631
3.4719999 -0.54100001 2.197 4281687631
3.322 -0.53100002 2.2030001 4281687631
3.1719999 -0.52200001 2.2049999 4281687631
3.0120001 -0.51099998 2.1960001 4281687631
2.869 -0.50199997 2.1949999 4281687631
3.625 -0.56800002 2.1800001 4281687631
3.473 -0.55800003 2.188 4281687631
3.319 -0.54799998 2.1900001 4281687631
3.1659999 -0.53799999 2.1900001 4281687631
3.013 -0.528 2.1849999 4281687631
2.8710001 -0.51899999 2.1849999 4281687631
3.625 -0.58600003 2.1689999 4281687631
3.4679999 -0.57499999 2.1730001 4281687631
3.3139999 -0.56400001 2.175 4281687631
3.1670001 -0.55500001 2.178 4281687631
3.0109999 -0.54299998 2.171 4281687631
2.8759999 -0.53500003 2.175 4281687631
3.618 -0.602 2.152 4281687631
3.464 -0.59100002 2.158 4281687631
3.312 -0.57999998 2.161 4281687631
3.1630001 -0.56999999 2.1630001 4281687631
3.0150001 -0.55900002 2.161 4281687631
2.9089999 -0.55699998 2.187 4281687631
3.6210001 -0.62 2.141 4281687631
3.471 -0.60900003 2.1489999 4281687631
3.3180001 -0.597 2.151 4281687631
3.1830001 -0.58899999 2.1630001 4281687631
3.0480001 -0.58099997 2.1700001 4281687631
3.6340001 -0.63800001 2.135 4281687631
3.5039999 -0.63099998 2.1559999 4281687631
3.3559999 -0.62 2.1619999 4281687631
3.6559999 -0.65899998 2.1340001 4281687631
3.5699999 -0.65899998 2.181 4281687631
3.7 -0.68300003 2.1440001 4281687631
3.599 -0.68000001 2.1830001 4281687631
3.73 -0.704 2.145 4281687631
3.598 -0.69499999 2.165 4281687631
3.734 -0.72000003 2.1300001 4281687631
3.5910001 -0.70899999 2.1440001 4281687631
3.7539999 -0.73799998 2.1229999 4281687631
3.609 -0.727 2.1359999 4281687631
3.5409999 -0.74400002 2.174 4281687631
3.3859999 -0.73000002 2.175 4281687631
3.73 -0.77899998 2.168 4281687631
3.573 -0.764 2.1730001 4281687631
3.4219999 -0.75099999 2.178 4281687631
3.7260001 -0.792 2.145 4281687631
3.573 -0.77700001 2.152 4281687631
3.415 -0.76099998 2.152 4281687631
3.7249999 -0.80400002 2.1229999 4281687631
3.5739999 -0.79000002 2.131 4281687631
3.4260001 -0.77499998 2.1370001 4281687631
3.494 -0.80199999 2.1559999 4281687631
3.7060001 -0.84200001 2.1630001 4281687631
3.5650001 -0.82999998 2.1760001 4281687631
3.404 -0.81199998 2.1730001 4281687631
3.707 -0.85299999 2.1400001 4281687631
3.556 -0.838 2.1470001 4281687631
3.402 -0.82099998 2.148 4281687631
3.714 -0.86500001 2.119 4281687631
3.569 -0.85100001 2.1289999 4281687631
3.421 -0.83499998 2.1340001 4281687631
3.5090001 -0.866 2.1619999 4281687631
3.3710001 -0.85299999 2.171 4281687631
3.6989999 -0.90100002 2.1530001 4281687631
3.5420001 -0.88200003 2.155 4281687631
3.3929999 -0.866 2.158 4281687631
3.6949999 -0.90799999 2.1240001 4281687631
3.5450001 -0.89099997 2.1300001 4281687631
3.3940001 -0.87400001 2.132 4281687631
3.7360001 -0.926 2.119 4281687631
3.595 -0.91100001 2.131 4281687631
3.684 -0.94 2.155 4281687631
3.54 -0.92400002 2.164 4281687631
3.6860001 -0.94700003 2.1259999 4281687631
3.5320001 -0.92799997 2.1289999 4281687631
3.7160001 -0.95999998 2.1140001 4281687631
3.5769999 -0.94499999 2.1259999 4281687631
3.6719999 -0.97500002 2.151 4281687631
3.677 -0.98000002 2.122 4281687631
3.7190001 -0.99400002 2.115 4281687631
2.6440001 -1.59 1.221 4286772515
2.8959999 -1.642 0.98699999 4286772515
2.7950001 -1.622 1.076 4286772515
2.6129999 -1.58 1.193 4286772515
2.855 -1.6289999 0.95999998 4286772515
2.803 -1.617 1.003 4286772515
2.756 -1.609 1.048 4286772515
2.698 -1.595 1.0880001 4286772515
2.6400001 -1.582 1.127 4286772515
2.579 -1.568 1.164 4286772515
2.8099999 -1.614 0.93199998 4286772515
2.766 -1.6059999 0.977 4286772515
2.717 -1.596 1.02 4286772515
2.6659999 -1.585 1.061 4286772515
2.605 -1.569 1.098 4286772515
2.5469999 -1.557 1.136 4286772515
2.77 -1.6 0.90600002 4286772515
2.7279999 -1.5930001 0.95099998 4286772515
2.6849999 -1.585 0.99400002 4286772515
2.6340001 -1.574 1.035 4286772515
2.575 -1.559 1.072 4286772515
2.5220001 -1.549 1.11 4286772515
2.734 -1.5880001 0.88099998 4286772515
2.6960001 -1.582 0.926 4286772515
2.655 -1.575 0.96899998 4286772515
2.6070001 -1.5650001 1.01 4286772515
2.55 -1.55 1.0470001 4286772515
2.4990001 -1.541 1.085 4286772515
2.7079999 -1.581 0.85900003 4286772515
2.675 -1.577 0.90399998 4286772515
2.6289999 -1.567 0.94599998 4286772515
2.5799999 -1.5549999 0.98500001 4286772515
2.527 -1.543 1.022 4286772515
2.4779999 -1.533 1.061 4286772515
2.6760001 -1.569 0.83499998 4286772515
2.6429999 -1.5650001 0.88 4286772515
2.598 -1.554 0.92000002 4286772515
2.556 -1.5470001 0.96100003 4286772515
2.5109999 -1.538 1.001 4286772515
2.4560001 -1.524 1.036 4286772515
2.654 -1.563 0.81400001 4286772515
2.6210001 -1.558 0.85799998 4286772515
2.579 -1.549 0.89899999 4286772515
2.54 -1.5420001 0.94 4286772515
2.4890001 -1.529 0.977 4286772515
2.438 -1.517 1.013 4286772515
2.628 -1.553 0.792 4286772515
2.5940001 -1.5470001 0.83499998 4286772515
2.5599999 -1.5420001 0.87800002 4286772515
2.52 -1.534 0.91799998 4286772515
2.473 -1.523 0.95499998 4286772515
2.425 -1.512 0.99199998 4286772515
2.6129999 -1.549 0.773 4286772515
2.5769999 -1.541 0.815 4286772515
2.5469999 -1.538 0.85799998 4286772515
2.507 -1.53 0.898 4286772515
2.461 -1.5190001 0.935 4286772515
2.4100001 -1.505 0.97000003 4286772515
2.586 -1.538 0.75099999 4286772515
2.5599999 -1.535 0.79500002 4286772515
2.5280001 -1.53 0.83700001 4286772515
2.493 -1.524 0.87800002 4286772515
2.4460001 -1.512 0.91399997 4286772515
2.408 -1.506 0.95300001 4286772515
2.5739999 -1.534 0.73199999 4286772515
2.546 -1.53 0.77499998 4286772515
2.516 -1.526 0.81699997 4286772515
2.48 -1.5190001 0.85799998 4286772515
2.4360001 -1.508 0.89399999 4286772515
2.404 -1.505 0.93599999 4286772515
2.5599999 -1.529 0.71399999 4286772515
2.5339999 -1.525 0.75599998 4286772515
2.507 -1.522 0.79900002 4286772515
2.4690001 -1.513 0.838 4286772515
2.4360001 -1.5089999 0.87800002 4286772515
2.3959999 -1.5 0.91600001 4286772515
2.556 -1.529 0.69700003 4286772515
2.5309999 -1.525 0.74000001 4286772515
2.4990001 -1.5190001 0.78100002 4286772515
2.4619999 -1.51 0.81999999 4286772515
2.4300001 -1.505 0.86000001 4286772515
2.3889999 -1.4960001 0.89700001 4286772515
2.5420001 -1.522 0.67799997 4286772515
2.5209999 -1.521 0.72100002 4286772515
2.493 -1.516 0.76300001 4286772515
2.4630001 -1.511 0.80400002 4286772515
2.4289999 -1.5039999 0.84299999 4286772515
2.3929999 -1.497 0.88200003 4286772515
2.536 -1.5190001 0.66100001 4286772515
2.5139999 -1.517 0.704 4286772515
2.4879999 -1.513 0.745 4286772515
2.46 -1.5089999 0.787 4286772515
2.4260001 -1.501 0.82599998 4286772515
2.3989999 -1.5 0.86699998 4286772515
2.5309999 -1.517 0.64399999 4286772515
2.513 -1.516 0.68800002 4286772515
2.4790001 -1.507 0.727 4286772515
2.457 -1.505 0.76899999 4286772515
2.427 -1.501 0.80900002 4286772515
2.3989999 -1.497 0.85000002 4286772515
2.526 -1.5140001 0.62699997 4286772515
2.5139999 -1.516 0.67199999 4286772515
2.4619999 -1.495 0.70499998 4286772515
2.461 -1.506 0.75400001 4286772515
2.4319999 -1.501 0.79400003 4286772515
2.404 -1.497 0.83399999 4286772515
2.527 -1.513 0.61199999 4286772515
2.5120001 -1.5140001 0.65499997 4286772515
2.4679999 -1.497 0.69099998 4286772515
2.4649999 -1.507 0.73900002 4286772515
2.4360001 -1.501 0.778 4286772515
2.4070001 -1.4960001 0.81800002 4286772515
2.529 -1.513 0.59600002 4286772515
2.513 -1.512 0.639 4286772515
2.4749999 -1.499 0.67699999 4286772515
2.441 -1.489 0.71499997 4286772515
2.4389999 -1.5 0.76200002 4286772515
2.4189999 -1.499 0.80500001 4286772515
2.529 -1.511 0.57999998 4286772515
2.517 -1.512 0.62400001 4286772515
2.487 -1.503 0.66399997 4286772515
2.4460001 -1.488 0.699 4286772515
2.451 -1.503 0.74900001 4286772515
2.4260001 -1.499 0.79000002 4286772515
2.536 -1.512 0.56599998 4286772515
2.5239999 -1.513 0.61000001 4286772515
2.503 -1.5089999 0.65100002 4286772515
2.4560001 -1.49 0.68599999 4286772515
2.464 -1.506 0.736 4286772515
2.4349999 -1.5 0.77499998 4286772515
2.543 -1.513 0.551 4286772515
2.5280001 -1.512 0.59399998 4286772515
2.5190001 -1.515 0.639 4286772515
2.4779999 -1.499 0.67500001 4286772515
2.4519999 -1.493 0.71499997 4286772515
2.4560001 -1.506 0.764 4286772515
2.55 -1.513 0.53600001 4286772515
2.543 -1.516 0.58099997 4286772515
2.529 -1.515 0.62400001 4286772515
2.506 -1.51 0.66500002 4286772515
2.474 -1.501 0.704 4286772515
2.4679999 -1.507 0.75 4286772515
2.562 -1.516 0.52200001 4286772515
2.5569999 -1.5190001 0.56699997 4286772515
2.5409999 -1.517 0.61000001 4286772515
2.5209999 -1.513 0.65200001 4286772515
2.4990001 -1.5089999 0.69300002 4286772515
2.4809999 -1.508 0.736 4286772515
2.5769999 -1.5190001 0.509 4286772515
2.5669999 -1.52 0.55299997 4286772515
2.5580001 -1.521 0.597 4286772515
2.5409999 -1.518 0.63999999 4286772515
2.5179999 -1.513 0.68099999 4286772515
2.494 -1.508 0.722 4286772515
2.5929999 -1.523 0.495 4286772515
2.585 -1.524 0.54000002 4286772515
2.572 -1.523 0.583 4286772515
2.5610001 -1.523 0.62800002 4286772515
2.5469999 -1.523 0.67199999 4286772515
2.53 -1.522 0.71399999 4286772515
2.609 -1.526 0.48199999 4286772515
2.5999999 -1.526 0.52600002 4286772515
2.596 -1.529 0.57200003 4286772515
2.5840001 -1.529 0.616 4286772515
2.5680001 -1.527 0.65899998 4286772515
2.552 -1.526 0.70300001 4286772515
2.628 -1.53 0.46900001 4286772515
2.619 -1.53 0.51300001 4286772515
2.618 -1.535 0.55900002 4286772515
2.6099999 -1.536 0.60500002 4286772515
2.5899999 -1.531 0.64700001 4286772515
2.579 -1.533 0.69199997 4286772515
2.6400001 -1.53 0.454 4286772515
2.6470001 -1.538 0.50099999 4286772515
2.6429999 -1.54 0.54699999 4286772515
2.6370001 -1.543 0.59299999 4286772515
2.6240001 -1.5420001 0.63800001 4286772515
2.6099999 -1.541 0.68199998 4286772515
2.6670001 -1.5369999 0.442 4286772515
2.6689999 -1.5420001 0.48800001 4286772515
2.6659999 -1.545 0.53500003 4286772515
2.661 -1.5470001 0.58099997 4286772515
2.651 -1.548 0.62599999 4286772515
2.642 -1.549 0.67199999 4286772515
2.698 -1.546 0.43000001 4286772515
2.6930001 -1.546 0.47499999 4286772515
2.7030001 -1.556 0.52399999 4286772515
2.694 -1.556 0.56999999 4286772515
2.6819999 -1.554 0.61500001 4286772515
2.675 -1.557 0.662 4286772515
2.72 -1.549 0.41600001 4286772515
2.733 -1.559 0.465 4286772515
2.7279999 -1.5599999 0.51099998 4286772515
2.7249999 -1.562 0.55800003 4286772515
2.7179999 -1.564 0.60600001 4286772515
2.71 -1.5650001 0.65200001 4286772515
2.7520001 -1.557 0.40400001 4286772515
2.7590001 -1.564 0.45199999 4286772515
2.7620001 -1.568 0.5 4286772515
2.7579999 -1.5700001 0.54699999 4286772515
2.7539999 -1.573 0.59500003 4286772515
2.7520001 -1.577 0.64399999 4286772515
2.786 -1.5650001 0.39199999 4286772515
2.796 -1.573 0.44100001 4286772515
2.7980001 -1.577 0.48899999 4286772515
2.799 -1.581 0.53799999 4286772515
2.802 -1.587 0.58700001 4286772515
2.7980001 -1.59 0.63599998 4286772515
2.8210001 -1.574 0.38 4286772515
2.832 -1.582 0.42899999 4286772515
2.835 -1.586 0.47799999 4286772515
2.8380001 -1.59 0.52700001 4286772515
2.839 -1.595 0.57700002 4286772515
2.8410001 -1.6 0.62699997 4286772515
2.8570001 -1.582 0.36700001 4286772515
2.872 -1.592 0.41800001 4286772515
2.8840001 -1.6 0.46799999 4286772515
2.8840001 -1.603 0.51800001 4286772515
2.8859999 -1.607 0.56800002 4286772515
2.898 -1.5930001 0.35600001 4286772515
2.9130001 -1.601 0.40599999 4286772515
2.9289999 -1.6109999 0.458 4286772515
2.931 -1.614 0.50800002 4286772515
2.9360001 -1.62 0.56 4286772515
2.941 -1.603 0.34400001 4286772515
2.9649999 -1.6160001 0.39500001 4286772515
2.9779999 -1.624 0.447 4286772515
2.9790001 -1.626 0.498 4286772515
2.983 -1.631 0.55000001 4286772515
2.994 -1.618 0.33199999 4286772515
3.013 -1.628 0.38499999 4286772515
3.0239999 -1.6339999 0.43700001 4286772515
3.0439999 -1.63 0.31999999 4286772515
3.069 -1.643 0.37400001 4286772515
3.0999999 -1.6440001 0.30899999 4286772515
2.892 -1.641 0.98900002 4286772515
2.8139999 -1.617 0.95700002 4286772515
2.7920001 -1.604 0.88 4286772515
2.7360001 -1.591 0.92400002 4286772515
2.723 -1.5829999 0.852 4286772515
2.6700001 -1.572 0.89600003 4286772515
2.8280001 -1.597 0.63999999 4286772515
2.6530001 -1.561 0.824 4286772515
2.6040001 -1.551 0.866 4286772515
2.7550001 -1.574 0.616 4286772515
2.7219999 -1.569 0.66399997 4286772515
2.6830001 -1.562 0.71100003 4286772515
2.638 -1.552 0.755 4286772515
2.5969999 -1.546 0.79900002 4286772515
2.5420001 -1.531 0.83899999 4286772515
2.688 -1.554 0.59399998 4286772515
2.6600001 -1.551 0.64200002 4286772515
2.6240001 -1.545 0.68800002 4286772515
2.5769999 -1.533 0.73000002 4286772515
2.5380001 -1.527 0.77399999 4286772515
2.4879999 -1.516 0.81400001 4286772515
2.6240001 -1.533 0.57300001 4286772515
2.598 -1.5319999 0.61900002 4286772515
2.5569999 -1.523 0.662 4286772515
2.5220001 -1.517 0.70700002 4286772515
2.484 -1.511 0.75 4286772515
2.4419999 -1.503 0.79100001 4286772515
2.575 -1.521 0.55400002 4286772515
2.5469999 -1.518 0.60000002 4286772515
2.516 -1.5140001 0.64399999 4286772515
2.444 -1.485 0.67699999 4286772515
2.418 -1.4859999 0.722 4286772515
2.3929999 -1.488 0.76700002 4286772515
2.5209999 -1.505 0.53500003 4286772515
2.49 -1.499 0.57800001 4286772515
2.5239999 -1.522 0.52700001 4286772515
3.0669999 -1.635 0.30700001 4286772515
3.039 -1.63 0.36000001 4286772515
3.0120001 -1.6289999 0.41299999 4286772515
2.974 -1.6210001 0.46399999 4286772515
2.9400001 -1.617 0.51499999 4286772515
2.9719999 -1.6059999 0.28999999 4286772515
2.951 -1.6059999 0.34200001 4286772515
2.9230001 -1.602 0.39300001 4286772515
2.888 -1.596 0.44299999 4286772515
2.855 -1.591 0.49200001 4286772515
2.8659999 -1.58 0.324 4286772515
2.8429999 -1.579 0.37400001 4286772515
2.809 -1.573 0.42300001 4286772515
2.7820001 -1.5700001 0.47099999 4286772515
2.767 -1.557 0.35600001 4286772515
2.7360001 -1.551 0.40400001 4286772515
2.7060001 -1.5470001 0.44999999 4286772515
2.642 -1.529 0.43099999 4286772515
3.8989999 -0.75999999 2.1159999 4291792374
4.0609999 -0.80699998 2.112 4291792374
3.882 -0.78200001 2.125 4291792374
4.0190001 -0.824 2.1070001 4291792374
3.8759999 -0.80500001 2.1389999 4291792374
4.1799998 -0.87300003 2.098 4291792374
4.0139999 -0.84899998 2.1210001 4291792374
3.865 -0.829 2.1489999 4291792374
4.362 -0.92699999 2.0940001 4291792374
4.1589999 -0.89399999 2.1029999 4291792374
4.0089998 -0.87400001 2.135 4291792374
3.829 -0.84600002 2.1459999 4291792374
4.3169999 -0.94499999 2.089 4291792374
4.152 -0.92000002 2.115 4291792374
3.9790001 -0.89300001 2.1340001 4291792374
4.2969999 -0.96700001 2.0929999 4291792374
4.1399999 -0.94400001 2.1240001 4291792374
3.927 -0.90799999 2.1210001 4291792374
4.289 -0.99299997 2.1029999 4291792374
4.1069999 -0.963 2.1210001 4291792374
3.888 -0.92500001 2.1129999 4291792374
4.2789998 -1.017 2.112 4291792374
4.0619998 -0.97899997 2.1110001 4291792374
3.852 -0.94199997 2.1070001 4291792374
4.2470002 -1.0369999 2.108 4291792374
4.0120001 -0.99299997 2.0969999 4291792374
3.836 -0.96399999 2.1099999 4291792374
4.1950002 -1.051 2.0929999 4291792374
3.977 -1.01 2.089 4291792374
3.8310001 -0.98799998 2.118 4291792374
4.1570001 -1.068 2.085 4291792374
3.9679999 -1.035 2.095 4291792374
3.826 -1.013 2.1259999 4291792374
4.1240001 -1.087 2.0780001 4291792374
3.96 -1.059 2.1010001 4291792374
3.8169999 -1.0369999 2.131 4291792374
4.1100001 -1.109 2.0799999 4291792374
3.9549999 -1.084 2.1070001 4291792374
3.809 -1.061 2.1359999 4291792374
4.0970001 -1.133 2.082 4291792374
3.9430001 -1.107 2.109 4291792374
3.7950001 -1.0829999 2.1359999 4291792374
4.085 -1.156 2.0829999 4291792374
3.9419999 -1.133 2.1159999 4291792374
3.7739999 -1.102 2.131 4291792374
4.0819998 -1.181 2.0880001 4291792374
3.9289999 -1.155 2.115 4291792374
3.7539999 -1.122 2.1259999 4291792374
4.0760002 -1.206 2.0899999 4291792374
3.9170001 -1.177 2.1140001 4291792374
3.737 -1.143 2.122 4291792374
4.0700002 -1.23 2.092 4291792374
3.904 -1.199 2.1110001 4291792374
3.717 -1.161 2.115 4291792374
4.0599999 -1.253 2.0899999 4291792374
3.895 -1.222 2.1099999 4291792374
3.711 -1.184 2.115 4291792374
4.0580001 -1.279 2.092 4291792374
3.8859999 -1.245 2.109 4291792374
3.6919999 -1.2029999 2.108 4291792374
4.0510001 -1.303 2.0910001 4291792374
3.8740001 -1.266 2.1040001 4291792374
3.687 -1.226 2.1070001 4291792374
4.04 -1.325 2.0869999 4291792374
3.8759999 -1.2920001 2.1059999 4291792374
3.6849999 -1.25 2.1070001 4291792374
4.0440001 -1.352 2.089 4291792374
3.8670001 -1.314 2.102 4291792374
3.6849999 -1.274 2.1059999 4291792374
4.0289998 -1.3710001 2.0799999 4291792374
3.8740001 -1.341 2.105 4291792374
3.6900001 -1.3 2.109 4291792374
4.0240002 -1.3940001 2.0769999 4291792374
3.8699999 -1.363 2.1010001 4291792374
3.691 -1.323 2.108 4291792374
4.0180001 -1.416 2.0710001 4291792374
3.8670001 -1.386 2.0969999 4291792374
3.701 -1.35 2.1110001 4291792374
4.0159998 -1.439 2.0669999 4291792374
3.865 -1.409 2.092 4291792374
3.714 -1.378 2.115 4291792374
4.0050001 -1.459 2.0569999 4291792374
3.8610001 -1.4299999 2.086 4291792374
3.7179999 -1.402 2.112 4291792374
4.0079999 -1.484 2.053 4291792374
3.8529999 -1.45 2.076 4291792374
3.714 -1.423 2.105 4291792374
4.0079999 -1.506 2.0469999 4291792374
3.8510001 -1.472 2.069 4291792374
3.7119999 -1.444 2.0969999 4291792374
4.02 -1.533 2.046 4291792374
3.845 -1.4910001 2.059 4291792374
3.707 -1.464 2.0869999 4291792374
4.0450001 -1.5650001 2.0510001 4291792374
3.8510001 -1.515 2.0539999 4291792374
3.701 -1.482 2.076 4291792374
4.085 -1.603 2.063 4291792374
3.8699999 -1.544 2.0550001 4291792374
3.698 -1.502 2.0650001 4291792374
4.112 -1.635 2.066 4291792374
3.717 -1.529 2.0650001 4291792374
4.1199999 -1.659 2.0599999 4291792374
3.948 -1.6160001 2.075 4291792374
3.743 -1.559 2.069 4291792374
4.1079998 -1.674 2.0420001 4291792374
3.9579999 -1.64 2.069 4291792374
4.1160002 -1.697 2.033 4291792374
3.9619999 -1.661 2.0580001 4291792374
4.145 -1.729 2.0339999 4291792374
3.9579999 -1.677 2.0420001 4291792374
3.9779999 -1.7029999 2.0380001 4291792374
3.928 -1.7589999 2.0639999 4291792374
3.931 -1.775 2.0469999 4291792374
3.9319999 -1.789 2.029 4291792374
3.915 -1.848 2.0569999 4291792374
3.9059999 -1.853 2.0280001 4291792374
3.8959999 -1.903 2.0480001 4291792374
3.8970001 -1.91 2.0220001 4291792374
3.974 -1.9529999 2.0339999 4291792374
3.8740001 -1.938 2.052 4291792374
3.8900001 -1.949 2.0309999 4291792374
3.934 -1.973 2.0239999 4291792374
4.217 -1.404 2.059 4291792374
4.1880002 -1.427 2.0580001 4291792374
4.1669998 -1.4529999 2.0610001 4291792374
4.1659999 -1.485 2.073 4291792374
4.1459999 -1.511 2.0739999 4291792374
4.1149998 -1.5319999 2.069 4291792374
4.0799999 -1.552 2.0610001 4291792374
4.053 -1.574 2.0569999 4291792374
4.0190001 -1.5930001 2.0480001 4291792374
3.997 -1.6160001 2.0439999 4291792374
3.98 -1.641 2.0420001 4291792374
3.9660001 -1.6670001 2.0409999 4291792374
3.954 -1.694 2.04 4291792374
3.9489999 -1.723 2.0409999 4291792374
3.937 -1.748 2.0380001 4291792374
3.928 -1.775 2.036 4291792374
3.9219999 -1.804 2.0339999 4291792374
3.914 -1.83 2.0309999 4291792374
3.9100001 -1.859 2.0280001 4291792374
3.904 -1.885 2.0239999 4291792374
3.902 -1.913 2.0209999 4291792374
3.902 -1.942 2.0179999 4291792374
3.898 -1.9680001 2.0109999 4291792374
3.8789999 -0.792 2.155 4291792374
3.878 -0.80599999 2.1340001 4291792374
3.875 -0.81800002 2.1110001 4291792374
3.997 -0.87 2.1329999 4291792374
3.858 -0.85699999 2.1530001 4291792374
3.997 -0.88099998 2.109 4291792374
3.8629999 -0.87 2.132 4291792374
4.0180001 -0.89700001 2.095 4291792374
3.869 -0.88200003 2.1110001 4291792374
4.1170001 -0.93099999 2.122 4291792374
3.944 -0.91000003 2.1259999 4291792374
4.1409998 -0.94700003 2.108 4291792374
3.9920001 -0.93099999 2.1259999 4291792374
3.8529999 -0.91799998 2.145 4291792374
4.152 -0.95899999 2.0869999 4291792374
3.9949999 -0.94099998 2.1010001 4291792374
3.8510001 -0.926 2.1170001 4291792374
4.256 -0.99199998 2.112 4291792374
4.0700002 -0.96799999 2.112 4291792374
3.8989999 -0.94599998 2.1159999 4291792374
4.2820001 -1.008 2.096 4291792374
4.1300001 -0.99000001 2.115 4291792374
3.9790001 -0.97299999 2.131 4291792374
3.8380001 -0.958 2.148 4291792374
4.3080001 -1.022 2.0799999 4291792374
4.1360002 -0.99900001 2.089 4291792374
3.974 -0.97899997 2.099 4291792374
3.839 -0.96499997 2.1199999 4291792374
4.2280002 -1.029 2.1059999 4291792374
4.046 -1.0039999 2.1070001 4291792374
3.865 -0.97799999 2.1040001 4291792374
4.2750001 -1.0470001 2.099 4291792374
4.119 -1.028 2.1140001 4291792374
3.9690001 -1.01 2.1300001 4291792374
3.8239999 -0.99299997 2.1440001 4291792374
4.3049998 -1.061 2.082 4291792374
4.1259999 -1.035 2.0869999 4291792374
3.971 -1.016 2.0999999 4291792374
3.825 -0.99800003 2.1129999 4291792374
4.2290001 -1.066 2.108 4291792374
4.039 -1.038 2.1040001 4291792374
3.8629999 -1.012 2.1029999 4291792374
4.27 -1.081 2.096 4291792374
4.118 -1.061 2.1129999 4291792374
3.964 -1.041 2.125 4291792374
3.819 -1.024 2.138 4291792374
4.3189998 -1.097 2.0869999 4291792374
4.1290002 -1.068 2.085 4291792374
3.9660001 -1.045 2.0929999 4291792374
3.8239999 -1.027 2.108 4291792374
4.2470002 -1.101 2.1110001 4291792374
4.0619998 -1.072 2.1099999 4291792374
3.8940001 -1.048 2.1129999 4291792374
4.2639999 -1.107 2.086 4291792374
4.1090002 -1.086 2.0999999 4291792374
3.9560001 -1.0650001 2.112 4291792374
4.1490002 -1.098 2.086 4291792374
3.9760001 -1.071 2.0880001 4291792374
4.2540002 -1.126 2.1029999 4291792374
4.098 -1.104 2.1159999 4291792374
4.2709999 -1.13 2.076 4291792374
4.1069999 -1.105 2.086 4291792374
4.2129998 -1.132 2.1029999 4291792374
4.256 -1.142 2.0869999 4291792374
2.4590001 -1.066 -0.248 4280100298
2.4400001 -1.074 -0.25600001 4280100298
2.421 -1.068 -0.214 4280100298
2.352 -1.051 -0.257 4280100298
2.378 -1.0650001 -0.221 4280100298
2.4749999 -1.112 -0.19 4280100298
2.3699999 -1.075 -0.26899999 4280100298
2.3659999 -1.076 -0.23 4280100298
2.448 -1.1160001 -0.198 4280100298
2.5320001 -1.158 -0.164 4280100298
2.3970001 -1.104 -0.28299999 4280100298
2.3670001 -1.092 -0.241 4280100298
2.4719999 -1.143 -0.211 4280100298
2.4000001 -1.113 -0.16599999 4280100298
2.4300001 -1.135 -0.29800001 4280100298
2.398 -1.123 -0.255 4280100298
2.365 -1.109 -0.213 4280100298
2.3529999 -1.1059999 -0.17299999 4280100298
2.3970001 -1.13 -0.138 4280100298
2.4189999 -1.146 -0.30899999 4280100298
2.425 -1.151 -0.27000001 4280100298
2.3429999 -1.114 -0.222 4280100298
2.362 -1.126 -0.185 4280100298
2.3710001 -1.132 -0.147 4280100298
2.421 -1.163 -0.32100001 4280100298
2.4100001 -1.159 -0.28 4280100298
2.4030001 -1.158 -0.23899999 4280100298
2.359 -1.1390001 -0.19599999 4280100298
2.342 -1.133 -0.15700001 4280100298
2.4000001 -1.165 -0.121 4280100298
2.415 -1.176 -0.33199999 4280100298
2.4089999 -1.174 -0.292 4280100298
2.4100001 -1.176 -0.252 4280100298
2.414 -1.1799999 -0.213 4280100298
2.3599999 -1.156 -0.169 4280100298
2.3789999 -1.169 -0.132 4280100298
2.415 -1.192 -0.345 4280100298
2.4059999 -1.188 -0.303 4280100298
2.3800001 -1.176 -0.26100001 4280100298
2.4030001 -1.189 -0.22400001 4280100298
2.3369999 -1.159 -0.17900001 4280100298
2.3610001 -1.174 -0.14300001 4280100298
2.3940001 -1.196 -0.354 4280100298
2.4030001 -1.202 -0.31600001 4280100298
2.4070001 -1.204 -0.27599999 4280100298
2.385 -1.1950001 -0.234 4280100298
2.4330001 -1.221 -0.199 4280100298
2.3640001 -1.189 -0.155 4280100298
2.4100001 -1.22 -0.37 4280100298
2.4070001 -1.2180001 -0.329 4280100298
2.401 -1.216 -0.28799999 4280100298
2.368 -1.201 -0.245 4280100298
2.391 -1.214 -0.208 4280100298
2.309 -1.175 -0.163 4280100298
2.404 -1.232 -0.382 4280100298
2.391 -1.225 -0.34 4280100298
2.3940001 -1.227 -0.30000001 4280100298
2.368 -1.215 -0.25799999 4280100298
2.382 -1.223 -0.22 4280100298
2.4289999 -1.249 -0.184 4280100298
2.3840001 -1.2359999 -0.39199999 4280100298
2.3929999 -1.24 -0.35299999 4280100298
2.3959999 -1.242 -0.31400001 4280100298
2.391 -1.24 -0.273 4280100298
2.3659999 -1.228 -0.23100001 4280100298
2.3900001 -1.242 -0.19400001 4280100298
2.3900001 -1.253 -0.40700001 4280100298
2.392 -1.253 -0.36700001 4280100298
2.3889999 -1.252 -0.32600001 4280100298
2.381 -1.248 -0.285 4280100298
2.3659999 -1.2410001 -0.244 4280100298
2.3740001 -1.247 -0.206 4280100298
2.3829999 -1.263 -0.419 4280100298
2.382 -1.262 -0.37900001 4280100298
2.382 -1.261 -0.338 4280100298
2.3889999 -1.265 -0.30000001 4280100298
2.3870001 -1.265 -0.25999999 4280100298
2.3699999 -1.257 -0.219 4280100298
2.375 -1.273 -0.43200001 4280100298
2.375 -1.272 -0.391 4280100298
2.3840001 -1.276 -0.35299999 4280100298
2.3770001 -1.271 -0.31099999 4280100298
2.382 -1.275 -0.27200001 4280100298
2.3570001 -1.262 -0.23100001 4280100298
2.368 -1.281 -0.40400001 4280100298
2.365 -1.278 -0.36399999 4280100298
2.372 -1.281 -0.32499999 4280100298
2.3789999 -1.285 -0.28600001 4280100298
2.3770001 -1.285 -0.24600001 4280100298
2.404 -1.316 -0.46599999 4280100298
2.3840001 -1.303 -0.421 4280100298
2.362 -1.289 -0.377 4280100298
2.359 -1.286 -0.25799999 4280100298
2.342 -1.323 -0.13699999 4280100298
2.319 -1.294 -0.14399999 4280100298
2.3859999 -1.316 -0.15800001 4280100298
2.355 -1.291 -0.114 4280100298
2.3789999 -1.295 -0.16599999 4280100298
2.329 -1.261 -0.121 4280100298
2.3889999 -1.284 -0.175 4280100298
2.352 -1.256 -0.131 4280100298
2.365 -1.263 -0.223 4280100298
2.404 -1.275 -0.184 4280100298
2.339 -1.233 -0.138 4280100298
2.3429999 -1.2180001 -0.146 4280100298
2.391 -1.235 -0.107 4280100298
2.382 -1.229 -0.198 4280100298
2.3469999 -1.202 -0.153 4280100298
2.375 -1.21 -0.113 4280100298
2.3940001 -1.217 -0.206 4280100298
2.3510001 -1.187 -0.161 4280100298
2.368 -1.189 -0.12 4280100298
2.381 -1.202 -0.25400001 4280100298
2.404 -1.205 -0.213 4280100298
2.359 -1.174 -0.168 4280100298
2.365 -1.17 -0.127 4280100298
2.378 -1.183 -0.25999999 4280100298
2.404 -1.187 -0.22 4280100298
2.352 -1.153 -0.17399999 4280100298
2.3789999 -1.159 -0.134 4280100298
2.392 -1.1720001 -0.26800001 4280100298
2.381 -1.158 -0.22400001 4280100298
2.3559999 -1.137 -0.18000001 4280100298
2.378 -1.141 -0.14 4280100298
2.4100001 -1.1619999 -0.27599999 4280100298
2.398 -1.148 -0.23199999 4280100298
2.369 -1.126 -0.18700001 4280100298
2.3870001 -1.126 -0.146 4280100298
2.4219999 -1.15 -0.28299999 4280100298
2.3540001 -1.108 -0.233 4280100298
2.3770001 -1.1109999 -0.193 4280100298
2.5050001 -1.163 -0.16 4280100298
2.425 -1.132 -0.289 4280100298
2.365 -1.096 -0.23899999 4280100298
2.4330001 -1.119 -0.20299999 4280100298
2.503 -1.143 -0.16500001 4280100298
2.408 -1.1059999 -0.292 4280100298
2.372 -1.081 -0.245 4280100298
2.4860001 -1.124 -0.213 4280100298
2.539 -1.14 -0.17299999 4280100298
2.3789999 -1.074 -0.29300001 4280100298
2.352 -1.053 -0.248 4280100298
2.4059999 -1.069 -0.211 4280100298
2.3729999 -1.053 -0.296 4280100298
2.421 -1.066 -0.259 4280100298
2.5120001 -1.097 -0.22499999 4280100298
2.4519999 -1.069 -0.31099999 4280100298
2.444 -1.057 -0.266 4280100298
2.418 -1.035 -0.31 4280100298
2.431 -1.0319999 -0.26800001 4280100298
2.4619999 -1.035 -0.31900001 4280100298
2.3859999 -1.304 -0.46799999 4280100298
2.381 -1.28 -0.375 4280100298
2.3640001 -1.263 -0.42199999 4280100298
2.3800001 -1.261 -0.37900001 4280100298
2.378 -1.263 -0.47600001 4280100298
2.378 -1.252 -0.42899999 4280100298
2.3840001 -1.245 -0.384 4280100298
2.378 -1.245 -0.47999999 4280100298
2.385 -1.238 -0.435 4280100298
2.3889999 -1.23 -0.389 4280100298
2.385 -1.2309999 -0.48500001 4280100298
2.3889999 -1.222 -0.43900001 4280100298
2.388 -1.211 -0.39300001 4280100298
2.3859999 -1.2130001 -0.48899999 4280100298
2.388 -1.2029999 -0.442 4280100298
2.3970001 -1.197 -0.398 4280100298
2.391 -1.197 -0.493 4280100298
2.4000001 -1.1900001 -0.44800001 4280100298
2.402 -1.181 -0.40200001 4280100298
2.3970001 -1.181 -0.49700001 4280100298
2.402 -1.173 -0.45100001 4280100298
2.402 -1.163 -0.40400001 4280100298
2.401 -1.164 -0.5 4280100298
2.4030001 -1.155 -0.45300001 4280100298
2.4130001 -1.15 -0.40799999 4280100298
2.3989999 -1.145 -0.50199997 4280100298
2.404 -1.137 -0.456 4280100298
2.4130001 -1.131 -0.41 4280100298
2.411 -1.131 -0.50599998 4280100298
2.4130001 -1.122 -0.45899999 4280100298
2.421 -1.1160001 -0.414 4280100298
2.4159999 -1.114 -0.50800002 4280100298
2.4170001 -1.105 -0.461 4280100298
2.4230001 -1.098 -0.41499999 4280100298
2.415 -1.095 -0.509 4280100298
2.424 -1.089 -0.463 4280100298
2.405 -1.071 -0.50700003 4280100298
5.0780001 1.409 2.279 4285185182
5.0809999 1.375 2.2639999 4285185182
5.2480001 1.381 2.1989999 4285185182
5.1030002 1.347 2.2550001 4285185182
5.3130002 1.364 2.2090001 4285185182
5.1929998 1.336 2.277 4285185182
5.3769999 1.346 2.2160001 4285185182
5.21 1.307 2.2650001 4285185182
5.2189999 1.275 2.2490001 4285185182
5.0110002 1.227 2.2750001 4285185182
5.02 1.196 2.2579999 4285185182
5.0370002 1.1670001 2.243 4285185182
6.0110002 1.245 1.298 4285185182
5.9289999 1.252 1.4910001 4285185182
6.0050001 1.25 1.233 4285185182
5.9239998 1.257 1.424 4285185182
5.8860002 1.261 1.521 4285185182
5.961 1.258 1.2640001 4285185182
5.9239998 1.262 1.36 4285185182
5.8870001 1.266 1.456 4285185182
5.7950001 1.274 1.645 4285185182
5.9200001 1.265 1.295 4285185182
5.8829999 1.27 1.391 4285185182
5.8460002 1.275 1.487 4285185182
5.7989998 1.278 1.581 4285185182
5.7550001 1.283 1.675 4285185182
5.7049999 1.2869999 1.768 4285185182
5.8850002 1.274 1.3279999 4285185182
5.8439999 1.278 1.423 4285185182
5.8070002 1.283 1.518 4285185182
5.7659998 1.288 1.613 4285185182
5.71 1.29 1.704 4285185182
5.6719999 1.296 1.8 4285185182
5.8470001 1.281 1.359 4285185182
5.8140001 1.2869999 1.456 4285185182
5.77 1.29 1.549 4285185182
5.7270002 1.295 1.643 4285185182
5.6799998 1.299 1.737 4285185182
5.6339998 1.304 1.831 4285185182
5.8150001 1.289 1.392 4285185182
5.7729998 1.293 1.4859999 4285185182
5.7340002 1.2970001 1.581 4285185182
5.6859999 1.301 1.673 4285185182
5.6409998 1.306 1.767 4285185182
5.5939999 1.311 1.86 4285185182
5.7859998 1.296 1.425 4285185182
5.7399998 1.299 1.518 4285185182
5.698 1.304 1.6109999 4285185182
5.6570001 1.309 1.706 4285185182
5.6090002 1.313 1.799 4285185182
5.5560002 1.317 1.89 4285185182
5.7470002 1.301 1.456 4285185182
5.7150002 1.307 1.552 4285185182
5.6700001 1.311 1.645 4285185182
5.6259999 1.316 1.738 4285185182
5.573 1.3200001 1.829 4285185182
5.5229998 1.324 1.9220001 4285185182
5.7199998 1.307 1.489 4285185182
5.6750002 1.311 1.582 4285185182
5.6339998 1.316 1.675 4285185182
5.5910001 1.321 1.7690001 4285185182
5.5359998 1.325 1.86 4285185182
5.4920001 1.331 1.954 4285185182
5.697 1.3150001 1.524 4285185182
5.6479998 1.317 1.615 4285185182
5.6079998 1.323 1.709 4285185182
5.559 1.327 1.801 4285185182
5.5050001 1.33 1.891 4285185182
5.4590001 1.336 1.985 4285185182
5.671 1.3200001 1.557 4285185182
5.6290002 1.324 1.65 4285185182
5.585 1.329 1.743 4285185182
5.5279999 1.331 1.8329999 4285185182
5.4809999 1.337 1.926 4285185182
5.4330001 1.3430001 2.0179999 4285185182
5.6409998 1.324 1.589 4285185182
5.6009998 1.329 1.683 4285185182
5.559 1.334 1.776 4285185182
5.5009999 1.336 1.865 4285185182
5.454 1.342 1.9579999 4285185182
5.4089999 1.349 2.053 4285185182
5.6199999 1.329 1.624 4285185182
5.5809999 1.334 1.7180001 4285185182
5.5320001 1.3380001 1.809 4285185182
5.48 1.342 1.9 4285185182
5.427 1.347 1.9910001 4285185182
5.381 1.354 2.085 4285185182
5.5939999 1.332 1.656 4285185182
5.552 1.337 1.749 4285185182
5.507 1.342 1.8430001 4285185182
5.4569998 1.347 1.934 4285185182
5.408 1.353 2.027 4285185182
5.355 1.358 2.119 4285185182
5.5669999 1.334 1.688 4285185182
5.5310001 1.341 1.784 4285185182
5.4819999 1.345 1.876 4285185182
5.427 1.349 1.966 4285185182
5.3800001 1.3559999 2.0599999 4285185182
5.3270001 1.362 2.152 4285185182
5.5510001 1.339 1.724 4285185182
5.5100002 1.344 1.818 4285185182
5.4580002 1.348 1.909 4285185182
5.4060001 1.353 2.0009999 4285185182
5.3579998 1.359 2.0940001 4285185182
5.3039999 1.365 2.1860001 4285185182
5.5320001 1.342 1.7589999 4285185182
5.4829998 1.346 1.85 4285185182
5.4380002 1.352 1.944 4285185182
5.3850002 1.3559999 2.0350001 4285185182
5.3369999 1.363 2.1289999 4285185182
5.2839999 1.369 2.2219999 4285185182
5.513 1.344 1.793 4285185182
5.4629998 1.348 1.8839999 4285185182
5.4169998 1.353 1.978 4285185182
5.3639998 1.358 2.069 4285185182
5.3179998 1.3660001 2.164 4285185182
5.2389998 1.3660001 2.2460001 4285185182
5.4959998 1.345 1.827 4285185182
5.4499998 1.351 1.92 4285185182
5.4000001 1.3559999 2.013 4285185182
5.3460002 1.3609999 2.1040001 4285185182
5.302 1.369 2.201 4285185182
5.2069998 1.365 2.276 4285185182
5.4819999 1.348 1.862 4285185182
5.427 1.351 1.952 4285185182
5.3790002 1.357 2.046 4285185182
5.3340001 1.364 2.142 4285185182
5.2789998 1.37 2.234 4285185182
5.066 1.335 2.2579999 4285185182
5.4689999 1.349 1.898 4285185182
5.4130001 1.352 1.989 4285185182
5.3720002 1.36 2.085 4285185182
5.3179998 1.3660001 2.178 4285185182
5.2199998 1.3609999 2.253 4285185182
5.0190001 1.329 2.28 4285185182
5.448 1.348 1.931 4285185182
5.402 1.354 2.026 4285185182
5.3590002 1.3609999 2.122 4285185182
5.303 1.367 2.2149999 4285185182
5.1630001 1.351 2.2709999 4285185182
5.4349999 1.348 1.967 4285185182
5.3940001 1.355 2.0639999 4285185182
5.3439999 1.3609999 2.158 4285185182
5.2670002 1.3609999 2.2420001 4285185182
5.0599999 1.3279999 2.267 4285185182
5.427 1.349 2.0039999 4285185182
5.382 1.355 2.0999999 4285185182
5.3340001 1.362 2.1960001 4285185182
5.2220001 1.353 2.2650001 4285185182
5.4159999 1.348 2.04 4285185182
5.3730001 1.355 2.1370001 4285185182
5.316 1.36 2.23 4285185182
5.1240001 1.331 2.2639999 4285185182
5.4070001 1.347 2.0769999 4285185182
5.3610001 1.354 2.1730001 4285185182
5.2480001 1.344 2.2420001 4285185182
5.0599999 1.316 2.276 4285185182
5.408 1.348 2.1170001 4285185182
5.3629999 1.355 2.2149999 4285185182
5.2199998 1.3380001 2.2709999 4285185182
5.4039998 1.346 2.155 4285185182
5.3460002 1.351 2.2479999 4285185182
5.105 1.309 2.2609999 4285185182
5.4039998 1.345 2.1949999 4285185182
5.2340002 1.321 2.2409999 4285185182
5.052 1.295 2.2780001 4285185182
5.3930001 1.341 2.23 4285185182
5.2119999 1.314 2.2709999 4285185182
5.3649998 1.331 2.2579999 4285185182
5.0809999 1.279 2.2520001 4285185182
5.2550001 1.3 2.2490001 4285185182
5.046 1.267 2.2739999 4285185182
5.2010002 1.283 2.263 4285185182
5.0910001 1.251 2.2520001 4285185182
5.0359998 1.232 2.263 4285185182
5.6440001 1.3200001 1.589 4285185182
5.7309999 1.302 1.483 4285185182
5.7210002 1.3 1.5880001 4285185182
5.8210001 1.285 1.377 4285185182
5.8099999 1.281 1.4809999 4285185182
5.7930002 1.277 1.585 4285185182
5.9190001 1.27 1.27 4285185182
5.908 1.265 1.374 4285185182
5.8889999 1.26 1.478 4285185182
6.0050001 1.25 1.266 4285185182
7.0300002 -0.123 0.085000001 4290204786
7.3210001 -0.13699999 0.206 4290204786
6.9850001 -0.153 -0.127 4290204786
7.0760002 -0.164 -0.016000001 4290204786
7.3260002 -0.178 0.1 4290204786
7.369 -0.18799999 0.21799999 4290204786
7.0339999 -0.19400001 -0.23 4290204786
7.1409998 -0.205 -0.12 4290204786
7.2309999 -0.21699999 -0.0060000001 4290204786
7.1880002 -0.24699999 -0.22499999 4290204786
7.2950001 -0.25999999 -0.112 4290204786
7.3889999 -0.27200001 0.003 4290204786
7.448 -0.31600001 -0.105 4290204786
6.8979998 -0.186 -0.40099999 4290204786
6.8779998 -0.169 -0.35499999 4290204786
7.4879999 -0.34 -0.132 4290204786
7.335 -0.28299999 -0.13699999 4290204786
7.3779998 -0.27599999 -0.024 4290204786
7.1339998 -0.235 -0.252 4290204786
7.1799998 -0.227 -0.142 4290204786
7.2199998 -0.22 -0.030999999 4290204786
6.9780002 -0.18099999 -0.25299999 4290204786
7.0300002 -0.17299999 -0.146 4290204786
7.0650001 -0.16599999 -0.037 4290204786
7.105 -0.15800001 0.071999997 4290204786
7.4050002 -0.156 0.19 4290204786
7.0500002 -0.146 0.041000001 4290204786
7.395 -0.163 0.15700001 4290204786
6.9120002 -0.167 -0.287 4290204786
7.0209999 -0.178 -0.182 4290204786
7.1110001 -0.18799999 -0.074000001 4290204786
7.197 -0.2 0.035 4290204786
7.0599999 -0.219 -0.29899999 4290204786
7.1700001 -0.23100001 -0.193 4290204786
7.2680001 -0.243 -0.082999997 4290204786
7.3509998 -0.25600001 0.028999999 4290204786
7.2059999 -0.273 -0.31200001 4290204786
7.4099998 -0.29899999 -0.092 4290204786
7.4000001 -0.30700001 -0.123 4290204786
7.4380002 -0.29899999 -0.0049999999 4290204786
7.1700001 -0.26499999 -0.33899999 4290204786
7.21 -0.25799999 -0.226 4290204786
7.2690001 -0.25099999 -0.111 4290204786
7.2919998 -0.243 0.0040000002 4290204786
7.02 -0.211 -0.322 4290204786
7.0770001 -0.204 -0.212 4290204786
7.1170001 -0.197 -0.1 4290204786
7.151 -0.189 0.013 4290204786
7.2919998 -0.176 0.24600001 4290204786
6.8850002 -0.16 -0.30700001 4290204786
7.0089998 -0.138 0.022 4290204786
7.2639999 -0.13500001 0.139 4290204786
7.1880002 -0.142 0.103 4290204786
7.3540001 -0.153 0.21600001 4290204786
7.0229998 -0.168 -0.132 4290204786
7.1009998 -0.177 -0.026000001 4290204786
7.2470002 -0.189 0.081 4290204786
6.9429998 -0.19400001 -0.361 4290204786
7.0560002 -0.205 -0.26100001 4290204786
7.145 -0.215 -0.15700001 4290204786
7.2249999 -0.226 -0.050000001 4290204786
7.3629999 -0.23800001 0.059 4290204786
7.164 -0.25299999 -0.287 4290204786
7.2649999 -0.264 -0.182 4290204786
7.3410001 -0.27500001 -0.074000001 4290204786
7.427 -0.28600001 0.035999998 4290204786
7.1890001 -0.29100001 -0.41999999 4290204786
7.4710002 -0.32600001 -0.1 4290204786
7.1960001 -0.111 0.13699999 4290204786
7.02 -0.13 0.057 4290204786
7.2909999 -0.139 0.18099999 4290204786
7.0489998 -0.154 -0.018999999 4290204786
7.296 -0.163 0.102 4290204786
7.3270001 -0.167 0.226 4290204786
7.145 -0.184 0.022 4290204786
7.329 -0.21699999 0.064000003 4290204786
7.5139999 -0.35299999 -0.148 4290204786
7.388 -0.30199999 -0.121 4290204786
7.4359999 -0.296 0 4290204786
7.1729999 -0.264 -0.329 4290204786
7.2280002 -0.259 -0.213 4290204786
7.2690001 -0.252 -0.094999999 4290204786
7.3080001 -0.24600001 0.024 4290204786
7.0580001 -0.21600001 -0.29899999 4290204786
7.1129999 -0.211 -0.185 4290204786
7.158 -0.205 -0.068999998 4290204786
7.184 -0.198 0.048 4290204786
6.8860002 -0.176 -0.38 4290204786
6.9400001 -0.17 -0.26899999 4290204786
6.993 -0.164 -0.15700001 4290204786
7.0339999 -0.15800001 -0.041999999 4290204786
7.0869999 -0.152 0.071999997 4290204786
7.4050002 -0.152 0.19599999 4290204786
7.2719998 -0.22400001 0.039999999 4290204786
7.1630001 -0.19400001 -0.0020000001 4290204786
7.4000001 -0.193 0.212 4290204786
7.053 -0.164 -0.043000001 4290204786
7.0970001 -0.161 0.059 4290204786
7.4349999 -0.16500001 0.169 4290204786
7.2259998 -0.132 0.123 4290204786
7.0539999 -0.15099999 0.017000001 4290204786
7.3460002 -0.163 0.125 4290204786
6.895 -0.16500001 -0.322 4290204786
6.9829998 -0.17299999 -0.223 4290204786
7.0539999 -0.18000001 -0.121 4290204786
7.1329999 -0.18799999 -0.017999999 4290204786
7.2909999 -0.198 0.086999997 4290204786
6.9840002 -0.20200001 -0.361 4290204786
7.0689998 -0.20900001 -0.26100001 4290204786
7.1420002 -0.21699999 -0.15899999 4290204786
7.2150002 -0.22400001 -0.055 4290204786
7.2719998 -0.23199999 0.048999999 4290204786
7.1459999 -0.24600001 -0.301 4290204786
7.2189999 -0.25400001 -0.198 4290204786
7.302 -0.26199999 -0.093999997 4290204786
7.3740001 -0.27000001 0.012 4290204786
7.2199998 -0.28200001 -0.34099999 4290204786
7.3720002 -0.29800001 -0.133 4290204786
7.4569998 -0.30700001 -0.026000001 4290204786
7.0089998 -0.127 0.057 4290204786
7.276 -0.138 0.18000001 4290204786
6.96 -0.15099999 -0.141 4290204786
7.0689998 -0.16 -0.027000001 4290204786
7.2519999 -0.171 0.092 4290204786
7.3720002 -0.18000001 0.215 4290204786
7.1030002 -0.193 -0.113 4290204786
7.198 -0.20200001 0.003 4290204786
7.2350001 -0.236 -0.083999999 4290204786
7.335 -0.24600001 0.035999998 4290204786
7.3759999 -0.28200001 -0.054000001 4290204786
7.4660001 -0.32100001 -0.068999998 4290204786
7.1939998 -0.28999999 -0.39199999 4290204786
7.3270001 -0.285 -0.154 4290204786
7.3860002 -0.28200001 -0.030999999 4290204786
7.125 -0.252 -0.352 4290204786
7.1810002 -0.249 -0.234 4290204786
7.2420001 -0.24600001 -0.115 4290204786
7.2969999 -0.243 0.0049999999 4290204786
7.052 -0.21600001 -0.31200001 4290204786
7.1100001 -0.212 -0.19499999 4290204786
7.1599998 -0.20900001 -0.077 4290204786
7.2059999 -0.205 0.041999999 4290204786
6.9109998 -0.184 -0.38499999 4290204786
6.973 -0.18000001 -0.27200001 4290204786
7.033 -0.177 -0.15700001 4290204786
7.079 -0.17299999 -0.039000001 4290204786
7.1700001 -0.17 0.079000004 4290204786
7.0009999 -0.139 -0.003 4290204786
7.243 -0.138 0.117 4290204786
7.487 -0.32300001 -0.057 4290204786
7.3379998 -0.27599999 -0.088 4290204786
7.381 -0.271 0.02 4290204786
7.204 -0.23100001 -0.117 4290204786
7.2529998 -0.226 -0.0099999998 4290204786
7.0630002 -0.18700001 -0.145 4290204786
7.1129999 -0.182 -0.039999999 4290204786
7.1560001 -0.176 0.064999998 4290204786
7.2389998 -0.13 0.14399999 4290204786
7.0380001 -0.163 -0.074000001 4290204786
6.9200001 -0.176 -0.317 4290204786
6.993 -0.17900001 -0.219 4290204786
7.066 -0.182 -0.12 4290204786
6.9569998 -0.19499999 -0.36399999 4290204786
7.026 -0.198 -0.266 4290204786
7.0879998 -0.20100001 -0.167 4290204786
7.0500002 -0.21600001 -0.31400001 4290204786
7.112 -0.219 -0.214 4290204786
7.1360002 -0.237 -0.26199999 4290204786
7.151 -0.25400001 -0.30899999 4290204786
7.1789999 -0.271 -0.359 4290204786
7.1849999 -0.28600001 -0.40700001 4290204786
4.2030001 -1.771 2.0480001 4278577990
4.145 -1.8559999 2.0339999 4278577990
4.0609999 -1.874 2.053 4278577990
4.0599999 -1.885 2.03 4278577990
4.092 -1.911 2.023 4278577990
4.1799998 -1.962 2.0420001 4278577990
4.1950002 -1.978 2.0250001 4278577990
4.0430002 -1.936 2.05 4278577990
4.217 -1.997 2.0090001 4278577990
4.0450001 -1.9450001 2.0250001 4278577990
4.0879998 -1.972 2.02 4278577990
4.1789999 -2.0220001 2.0369999 4278577990
4.1810002 -2.0280001 2.01 4278577990
4.0289998 -1.984 2.0339999 4278577990
4.0440001 -1.994 2.0120001 4278577990
4.1399999 -2.0439999 2.029 4278577990
4.5879998 -2.154 1.8099999 4278577990
4.375 -2.1029999 1.913 4278577990
4.2680001 -2.079 1.961 4278577990
4.1690001 -2.059 2.0120001 4278577990
4.0279999 -2.02 2.04 4278577990
4.5619998 -2.145 1.771 4278577990
4.461 -2.1210001 1.824 4278577990
4.3559999 -2.096 1.875 4278577990
4.2490001 -2.0710001 1.9220001 4278577990
4.1469998 -2.049 1.971 4278577990
4.0310001 -2.0209999 2.01 4278577990
4.5359998 -2.135 1.7309999 4278577990
4.448 -2.1159999 1.789 4278577990
4.3460002 -2.092 1.84 4278577990
4.2379999 -2.066 1.886 4278577990
4.1389999 -2.0450001 1.9349999 4278577990
4.0359998 -2.0220001 1.98 4278577990
4.5159998 -2.1270001 1.694 4278577990
4.4289999 -2.108 1.751 4278577990
4.3369999 -2.0880001 1.8049999 4278577990
4.237 -2.0650001 1.855 4278577990
4.1350002 -2.0409999 1.902 4278577990
4.0310001 -2.017 1.947 4278577990
4.5009999 -2.1199999 1.658 4278577990
4.4260001 -2.1070001 1.72 4278577990
4.336 -2.0869999 1.775 4278577990
4.2329998 -2.0610001 1.822 4278577990
4.1360002 -2.039 1.8710001 4278577990
4.0349998 -2.016 1.916 4278577990
4.5009999 -2.1199999 1.628 4278577990
4.4190001 -2.102 1.686 4278577990
4.3319998 -2.0829999 1.7410001 4278577990
4.2309999 -2.0580001 1.79 4278577990
4.1409998 -2.0380001 1.841 4278577990
4.046 -2.0179999 1.8890001 4278577990
4.5 -2.118 1.598 4278577990
4.4180002 -2.099 1.656 4278577990
4.3309999 -2.0799999 1.711 4278577990
4.2449999 -2.0610001 1.7640001 4278577990
4.1539998 -2.04 1.8150001 4278577990
4.0549998 -2.017 1.8609999 4278577990
4.507 -2.119 1.5700001 4278577990
4.4190001 -2.0969999 1.625 4278577990
4.3340001 -2.0769999 1.6799999 4278577990
4.25 -2.059 1.735 4278577990
4.165 -2.0409999 1.7869999 4278577990
4.079 -2.023 1.839 4278577990
4.5110002 -2.118 1.541 4278577990
4.4380002 -2.102 1.601 4278577990
4.3540001 -2.0829999 1.6569999 4278577990
4.2680001 -2.062 1.71 4278577990
4.1830001 -2.0439999 1.763 4278577990
4.0970001 -2.0250001 1.814 4278577990
4.5250001 -2.1199999 1.5140001 4278577990
4.4499998 -2.1029999 1.573 4278577990
4.3730001 -2.086 1.632 4278577990
4.289 -2.066 1.686 4278577990
4.2080002 -2.049 1.74 4278577990
4.1240001 -2.0309999 1.7920001 4278577990
4.539 -2.122 1.487 4278577990
4.4699998 -2.1070001 1.549 4278577990
4.3930001 -2.089 1.607 4278577990
4.3130002 -2.0710001 1.663 4278577990
4.2319999 -2.053 1.717 4278577990
4.151 -2.036 1.77 4278577990
4.5619998 -2.1270001 1.4630001 4278577990
4.4949999 -2.112 1.525 4278577990
4.4239998 -2.0969999 1.585 4278577990
4.3439999 -2.0780001 1.641 4278577990
4.2670002 -2.062 1.698 4278577990
4.184 -2.043 1.75 4278577990
4.5840001 -2.1300001 1.438 4278577990
4.52 -2.1170001 1.502 4278577990
4.4530001 -2.102 1.563 4278577990
4.3779998 -2.086 1.622 4278577990
4.3010001 -2.069 1.678 4278577990
4.2319999 -2.056 1.7359999 4278577990
4.6160002 -2.1370001 1.416 4278577990
4.553 -2.1240001 1.48 4278577990
4.4850001 -2.109 1.5420001 4278577990
4.4120002 -2.092 1.601 4278577990
4.3460002 -2.0799999 1.6619999 4278577990
4.2729998 -2.0650001 1.719 4278577990
4.645 -2.1429999 1.393 4278577990
4.5960002 -2.135 1.462 4278577990
4.5320001 -2.1210001 1.525 4278577990
4.461 -2.105 1.585 4278577990
4.3899999 -2.0899999 1.645 4278577990
4.3179998 -2.075 1.7029999 4278577990
4.6869998 -2.152 1.374 4278577990
4.6420002 -2.1459999 1.444 4278577990
4.5809999 -2.1329999 1.508 4278577990
4.5110002 -2.1170001 1.569 4278577990
4.4429998 -2.1029999 1.631 4278577990
4.3720002 -2.0880001 1.689 4278577990
4.6890001 -2.1570001 1.425 4278577990
4.6329999 -2.1459999 1.492 4278577990
4.566 -2.131 1.554 4278577990
4.4980001 -2.1159999 1.6160001 4278577990
4.4330001 -2.1029999 1.678 4278577990
