# .PCD v0.7 - Point Cloud Data file format
VERSION 0.7
FIELDS x y z rgb
SIZE 4 4 4 4
TYPE F F F U
COUNT 1 1 1 1
WIDTH 1286
HEIGHT 1
VIEWPOINT 0 0 0 1 0 0 0
POINTS 1286
DATA ascii
2.263 0.249 0.125 4281782940
2.253 0.25 0.161 4281782940
2.247 0.252 0.197 4281782940
2.24 0.25400001 0.233 4281782940
2.2309999 0.255 0.26899999 4281782940
2.2279999 0.25799999 0.30500001 4281782940
2.26 0.25999999 0.13699999 4281782940
2.2520001 0.26100001 0.17200001 4281782940
2.253 0.264 0.20900001 4281782940
2.2449999 0.26499999 0.245 4281782940
2.237 0.26699999 0.28099999 4281782940
2.2260001 0.26800001 0.317 4281782940
2.2609999 0.27000001 0.149 4281782940
2.256 0.27200001 0.185 4281782940
2.253 0.27399999 0.221 4281782940
2.247 0.27599999 0.25799999 4281782940
2.2360001 0.27700001 0.29300001 4281782940
2.23 0.27900001 0.33000001 4281782940
2.2690001 0.28200001 0.161 4281782940
2.2620001 0.28299999 0.198 4281782940
2.2579999 0.285 0.234 4281782940
2.2449999 0.28600001 0.27000001 4281782940
2.243 0.289 0.30700001 4281782940
2.2309999 0.28999999 0.34200001 4281782940
2.2679999 0.292 0.17399999 4281782940
2.2590001 0.29300001 0.20999999 4281782940
2.257 0.296 0.24600001 4281782940
2.2520001 0.29800001 0.28299999 4281782940
2.2460001 0.30000001 0.31999999 4281782940
2.237 0.301 0.35600001 4281782940
2.2720001 0.30199999 0.186 4281782940
2.267 0.30399999 0.223 4281782940
2.263 0.30700001 0.25999999 4281782940
2.2539999 0.308 0.296 4281782940
2.2449999 0.31 0.33199999 4281782940
2.2379999 0.31200001 0.36899999 4281782940
2.2720001 0.31299999 0.199 4281782940
2.27 0.315 0.236 4281782940
2.2639999 0.317 0.273 4281782940
2.2539999 0.31799999 0.30899999 4281782940
2.2509999 0.32100001 0.34599999 4281782940
2.24 0.32300001 0.382 4281782940
2.2750001 0.32300001 0.212 4281782940
2.267 0.324 0.249 4281782940
2.266 0.32699999 0.28600001 4281782940
2.2520001 0.32800001 0.32100001 4281782940
2.2509999 0.331 0.359 4281782940
2.2409999 0.333 0.39500001 4281782940
2.276 0.333 0.22499999 4281782940
2.2720001 0.33500001 0.26199999 4281782940
2.2679999 0.33700001 0.29899999 4281782940
2.253 0.338 0.33500001 4281782940
2.2479999 0.34 0.37200001 4281782940
2.211 0.338 0.403 4281782940
2.276 0.34299999 0.23899999 4281782940
2.2780001 0.34599999 0.27599999 4281782940
2.2720001 0.34799999 0.31299999 4281782940
2.2590001 0.34900001 0.34900001 4281782940
2.2149999 0.345 0.38 4281782940
2.1949999 0.34599999 0.41299999 4281782940
2.2809999 0.35299999 0.25299999 4281782940
2.276 0.35499999 0.289 4281782940
2.2639999 0.35600001 0.32499999 4281782940
2.23 0.354 0.35800001 4281782940
2.2030001 0.35299999 0.391 4281782940
2.2820001 0.36199999 0.266 4281782940
2.2679999 0.36300001 0.30199999 4281782940
2.237 0.361 0.33500001 4281782940
2.2049999 0.359 0.36700001 4281782940
2.2650001 0.36899999 0.27700001 4281782940
2.2420001 0.368 0.31200001 4281782940
2.24 0.373 0.28799999 4281782940
2.1689999 -0.024 -0.050999999 4281782940
2.1600001 -0.023 -0.018999999 4281782940
2.138 -0.021 0.012 4281782940
2.1530001 -0.003 -0.012 4281782940
2.1589999 0.0049999999 -0.024 4281782940
2.151 0.0070000002 0.0070000002 4281782940
2.197 0.011 -0.101 4281782940
2.152 0.016000001 -0.003 4281782940
2.214 0.021 -0.114 4281782940
2.1989999 0.023 -0.081 4281782940
2.1340001 0.027000001 0.016000001 4281782940
2.2309999 0.030999999 -0.127 4281782940
2.214 0.033 -0.093000002 4281782940
2.138 0.035 -0.026000001 4281782940
2.1530001 0.037 0.0040000002 4281782940
2.233 0.041999999 -0.14 4281782940
2.1960001 0.043000001 -0.104 4281782940
2.198 0.044 -0.071999997 4281782940
2.1329999 0.046999998 -0.0060000001 4281782940
2.2119999 0.050999999 -0.15000001 4281782940
2.2030001 0.055 -0.082999997 4281782940
2.1919999 0.056000002 -0.050000001 4281782940
2.132 0.056000002 -0.017000001 4281782940
2.1619999 0.059 0.014 4281782940
2.2309999 0.061999999 -0.163 4281782940
2.217 0.063000001 -0.12899999 4281782940
2.21 0.064999998 -0.094999999 4281782940
2.2090001 0.067000002 -0.061999999 4281782940
2.201 0.068999998 -0.028999999 4281782940
2.1800001 0.07 0.003 4281782940
2.2290001 0.072999999 -0.175 4281782940
2.2279999 0.074000001 -0.141 4281782940
2.23 0.075999998 -0.108 4281782940
2.2160001 0.078000002 -0.072999999 4281782940
2.2030001 0.081 -0.0070000002 4281782940
2.237 0.083999999 -0.18700001 4281782940
2.2379999 0.085000001 -0.153 4281782940
2.2420001 0.088 -0.12 4281782940
2.2279999 0.089000002 -0.085000001 4281782940
2.2219999 0.090999998 -0.050999999 4281782940
2.2049999 0.092 -0.017999999 4281782940
2.22 0.093999997 -0.197 4281782940
2.25 0.097000003 -0.16599999 4281782940
2.247 0.098999999 -0.131 4281782940
2.2379999 0.1 -0.097000003 4281782940
2.2309999 0.102 -0.061999999 4281782940
2.221 0.104 -0.028999999 4281782940
2.2539999 0.108 -0.177 4281782940
2.2590001 0.11 -0.14300001 4281782940
2.2550001 0.112 -0.108 4281782940
2.244 0.114 -0.074000001 4281782940
2.234 0.115 -0.039999999 4281782940
2.23 0.118 -0.18700001 4281782940
2.27 0.122 -0.155 4281782940
2.256 0.124 -0.12 4281782940
2.257 0.126 -0.085000001 4281782940
2.2479999 0.127 -0.050999999 4281782940
2.276 0.134 -0.167 4281782940
2.273 0.13600001 -0.131 4281782940
2.267 0.138 -0.096000001 4281782940
2.2509999 0.139 -0.061000001 4281782940
2.253 0.14399999 -0.176 4281782940
2.283 0.148 -0.14300001 4281782940
2.276 0.15000001 -0.108 4281782940
2.2620001 0.15099999 -0.071999997 4281782940
2.29 0.161 -0.154 4281782940
2.2850001 0.163 -0.119 4281782940
2.277 0.164 -0.082999997 4281782940
2.26 0.171 -0.163 4281782940
2.2939999 0.175 -0.13 4281782940
2.2850001 0.177 -0.093999997 4281782940
2.2980001 0.18799999 -0.141 4281782940
2.2869999 0.189 -0.104 4281782940
2.263 0.197 -0.148 4281782940
2.3039999 0.20299999 -0.115 4281782940
2.3180001 0.21699999 -0.126 4281782940
2.293 0.227 -0.13500001 4281782940
2.306 0.39899999 0.15800001 4281782940
2.2850001 0.39399999 0.19400001 4281782940
2.27 0.38999999 0.23 4281782940
2.2509999 0.38499999 0.26499999 4281782940
2.322 0.38699999 0.153 4281782940
2.3069999 0.382 0.189 4281782940
2.2920001 0.37799999 0.226 4281782940
2.2739999 0.37400001 0.26100001 4281782940
2.2479999 0.368 0.29499999 4281782940
2.217 0.36199999 0.32800001 4281782940
2.312 0.37 0.146 4281782940
2.3069999 0.36700001 0.183 4281782940
2.3050001 0.36500001 0.22 4281782940
2.293 0.36199999 0.257 4281782940
2.2850001 0.359 0.29300001 4281782940
2.2590001 0.354 0.32699999 4281782940
2.3139999 0.35499999 0.14 4281782940
2.3050001 0.352 0.176 4281782940
2.299 0.34900001 0.213 4281782940
2.2869999 0.34599999 0.249 4281782940
2.2720001 0.34200001 0.285 4281782940
2.2550001 0.338 0.31999999 4281782940
2.3080001 0.33899999 0.132 4281782940
2.2980001 0.336 0.169 4281782940
2.2909999 0.333 0.205 4281782940
2.2739999 0.329 0.241 4281782940
2.266 0.32600001 0.27700001 4281782940
2.2509999 0.32300001 0.31200001 4281782940
2.3 0.32300001 0.125 4281782940
2.2950001 0.31999999 0.162 4281782940
2.2869999 0.31799999 0.198 4281782940
2.2690001 0.31299999 0.233 4281782940
2.263 0.31099999 0.26899999 4281782940
2.2479999 0.30700001 0.30399999 4281782940
2.2909999 0.30700001 0.118 4281782940
2.2839999 0.30399999 0.154 4281782940
2.279 0.30199999 0.19 4281782940
2.266 0.29800001 0.22499999 4281782940
2.2609999 0.296 0.26100001 4281782940
2.2420001 0.292 0.296 4281782940
2.286 0.292 0.11 4281782940
2.2780001 0.289 0.146 4281782940
2.279 0.287 0.183 4281782940
2.2639999 0.28400001 0.21799999 4281782940
2.2539999 0.28099999 0.25299999 4281782940
2.2390001 0.27700001 0.28799999 4281782940
2.2820001 0.27700001 0.103 4281782940
2.277 0.27500001 0.139 4281782940
2.2720001 0.27200001 0.17399999 4281782940
2.2579999 0.26899999 0.20999999 4281782940
2.2409999 0.26499999 0.244 4281782940
2.233 0.26199999 0.27900001 4281782940
2.2739999 0.26199999 0.094999999 4281782940
2.2639999 0.259 0.131 4281782940
2.2639999 0.257 0.16599999 4281782940
2.253 0.25400001 0.20100001 4281782940
2.237 0.25 0.236 4281782940
2.2260001 0.24699999 0.27000001 4281782940
2.27 0.248 0.086999997 4281782940
2.263 0.245 0.123 4281782940
2.2550001 0.242 0.15800001 4281782940
2.2420001 0.23899999 0.192 4281782940
2.234 0.236 0.227 4281782940
2.221 0.233 0.26100001 4281782940
2.2609999 0.233 0.079000004 4281782940
2.2550001 0.23 0.114 4281782940
2.2490001 0.227 0.149 4281782940
2.2420001 0.22499999 0.184 4281782940
2.2279999 0.222 0.219 4281782940
2.2160001 0.219 0.25299999 4281782940
2.2550001 0.219 0.071000002 4281782940
2.2490001 0.21600001 0.106 4281782940
2.2479999 0.214 0.141 4281782940
2.2360001 0.211 0.176 4281782940
2.2179999 0.207 0.20900001 4281782940
2.2079999 0.204 0.243 4281782940
2.2520001 0.205 0.063000001 4281782940
2.2420001 0.20200001 0.097999997 4281782940
2.24 0.199 0.133 4281782940
2.2349999 0.197 0.167 4281782940
2.2160001 0.193 0.20100001 4281782940
2.2079999 0.191 0.235 4281782940
2.2460001 0.191 0.055 4281782940
2.2409999 0.18799999 0.090000004 4281782940
2.234 0.186 0.124 4281782940
2.227 0.183 0.15800001 4281782940
2.214 0.18000001 0.192 4281782940
2.2 0.177 0.22499999 4281782940
2.2379999 0.177 0.046999998 4281782940
2.2390001 0.175 0.081 4281782940
2.2290001 0.17200001 0.115 4281782940
2.22 0.169 0.149 4281782940
2.211 0.167 0.183 4281782940
2.191 0.163 0.21600001 4281782940
2.234 0.164 0.037999999 4281782940
2.223 0.161 0.071999997 4281782940
2.223 0.15899999 0.107 4281782940
2.2130001 0.156 0.14 4281782940
2.2019999 0.153 0.17399999 4281782940
2.187 0.15000001 0.207 4281782940
2.2290001 0.15000001 0.029999999 4281782940
2.2219999 0.148 0.064000003 4281782940
2.217 0.145 0.097999997 4281782940
2.2119999 0.14300001 0.131 4281782940
2.197 0.14 0.16500001 4281782940
2.1849999 0.13699999 0.198 4281782940
2.2219999 0.13699999 0.021 4281782940
2.2119999 0.134 0.055 4281782940
2.2130001 0.132 0.089000002 4281782940
2.204 0.13 0.122 4281782940
2.1960001 0.127 0.156 4281782940
2.184 0.124 0.18799999 4281782940
2.223 0.124 0.012 4281782940
2.207 0.121 0.046 4281782940
2.2030001 0.119 0.079000004 4281782940
2.2 0.117 0.113 4281782940
2.187 0.114 0.146 4281782940
2.1760001 0.112 0.17900001 4281782940
2.2119999 0.111 0.003 4281782940
2.2049999 0.109 0.037 4281782940
2.1989999 0.106 0.07 4281782940
2.1960001 0.104 0.104 4281782940
2.181 0.101 0.13600001 4281782940
2.171 0.098999999 0.169 4281782940
2.1960001 0.097999997 -0.0049999999 4281782940
2.198 0.096000001 0.028000001 4281782940
2.197 0.093999997 0.061000001 4281782940
2.1960001 0.092 0.093999997 4281782940
2.1789999 0.089000002 0.127 4281782940
2.1670001 0.086999997 0.15899999 4281782940
2.1989999 0.086000003 -0.014 4281782940
2.1989999 0.083999999 0.017999999 4281782940
2.191 0.082000002 0.050999999 4281782940
2.1730001 0.079000004 0.083999999 4281782940
2.1730001 0.077 0.117 4281782940
2.161 0.074000001 0.149 4281782940
2.1960001 0.074000001 -0.023 4281782940
2.1930001 0.07 0.041999999 4281782940
2.181 0.067000002 0.075000003 4281782940
2.1619999 0.064999998 0.107 4281782940
2.155 0.061999999 0.139 4281782940
2.184 0.061000001 -0.032000002 4281782940
2.2 0.059999999 0 4281782940
2.1730001 0.057 0.032000002 4281782940
2.171 0.055 0.064999998 4281782940
2.1630001 0.052999999 0.097000003 4281782940
2.1459999 0.050000001 0.12899999 4281782940
2.1919999 0.050000001 -0.041999999 4281782940
2.198 0.048 -0.0089999996 4281782940
2.1589999 0.045000002 0.022 4281782940
2.165 0.043000001 0.055 4281782940
2.1199999 0.037999999 0.118 4281782940
2.187 0.037999999 -0.052000001 4281782940
2.1949999 0.035999998 -0.018999999 4281782940
2.158 0.034000002 0.013 4281782940
2.1730001 0.015 -0.071000002 4281782940
2.1630001 0.013 -0.037999999 4281782940
2.1600001 0.011 -0.0060000001 4281782940
2.175 0.0040000002 -0.081 4281782940
2.1530001 0 -0.016000001 4281782940
2.145 -0.012 0.0049999999 4281782940
2.131 -0.014 0.035999998 4281782940
2.175 -0.017999999 -0.101 4281782940
2.119 -0.026000001 0.057 4281782940
2.1760001 -0.028999999 -0.112 4281782940
2.1559999 -0.039000001 -0.121 4281782940
2.145 -0.041000001 -0.089000002 4281782940
2.145 -0.041999999 -0.057 4281782940
2.1289999 -0.044 -0.026000001 4281782940
2.257 0.20299999 -0.154 4281782940
2.3039999 0.199 -0.14399999 4281782940
2.2520001 0.18700001 -0.164 4281782940
2.2950001 0.189 -0.13 4281782940
2.277 0.18000001 -0.153 4281782940
2.2920001 0.17900001 -0.116 4281782940
2.237 0.17 -0.17399999 4281782940
2.3039999 0.17299999 -0.141 4281782940
2.2909999 0.17 -0.103 4281782940
2.27 0.163 -0.164 4281782940
2.293 0.163 -0.12800001 4281782940
2.283 0.16 -0.090000004 4281782940
2.293 0.155 -0.152 4281782940
2.283 0.152 -0.114 4281782940
2.2739999 0.15000001 -0.077 4281782940
2.256 0.145 -0.17399999 4281782940
2.286 0.145 -0.139 4281782940
2.2750001 0.142 -0.101 4281782940
2.257 0.139 -0.064000003 4281782940
2.2820001 0.13699999 -0.164 4281782940
2.2750001 0.134 -0.126 4281782940
2.2650001 0.131 -0.088 4281782940
2.2539999 0.12899999 -0.050999999 4281782940
2.2390001 0.126 -0.185 4281782940
2.273 0.126 -0.15000001 4281782940
2.263 0.123 -0.113 4281782940
2.2539999 0.121 -0.075000003 4281782940
2.2420001 0.118 -0.037999999 4281782940
2.267 0.117 -0.175 4281782940
2.2679999 0.115 -0.138 4281782940
2.257 0.113 -0.1 4281782940
2.2460001 0.11 -0.063000001 4281782940
2.2260001 0.107 -0.026000001 4281782940
2.217 0.107 -0.19599999 4281782940
2.256 0.107 -0.162 4281782940
2.2550001 0.104 -0.125 4281782940
2.247 0.102 -0.088 4281782940
2.234 0.098999999 -0.050999999 4281782940
2.2179999 0.097000003 -0.014 4281782940
2.2509999 0.097999997 -0.18700001 4281782940
2.2460001 0.096000001 -0.15000001 4281782940
2.2479999 0.093999997 -0.113 4281782940
2.2390001 0.090999998 -0.075999998 4281782940
2.2160001 0.089000002 -0.039000001 4281782940
2.2090001 0.086000003 -0.0020000001 4281782940
2.243 0.086999997 -0.175 4281782940
2.244 0.085000001 -0.138 4281782940
2.2390001 0.082999997 -0.101 4281782940
2.217 0.079999998 -0.063000001 4281782940
2.2160001 0.078000002 -0.027000001 4281782940
2.1989999 0.075999998 0.0080000004 4281782940
2.2360001 0.075999998 -0.163 4281782940
2.2290001 0.074000001 -0.125 4281782940
2.2160001 0.071999997 -0.088 4281782940
2.2190001 0.07 -0.052000001 4281782940
2.2049999 0.067000002 -0.016000001 4281782940
2.1889999 0.064999998 0.018999999 4281782940
2.2309999 0.064999998 -0.15099999 4281782940
2.2049999 0.063000001 -0.113 4281782940
2.2160001 0.061000001 -0.077 4281782940
2.2019999 0.059 -0.041000001 4281782940
2.1400001 0.055 -0.0040000002 4281782940
2.148 0.054000001 0.029999999 4281782940
2.204 0.054000001 -0.138 4281782940
2.1989999 0.052000001 -0.101 4281782940
2.2030001 0.050000001 -0.064999998 4281782940
2.1370001 0.045000002 0.0060000001 4281782940
2.141 0.043000001 0.041000001 4281782940
2.1960001 0.043000001 -0.127 4281782940
2.1900001 0.041000001 -0.090000004 4281782940
2.177 0.037999999 -0.054000001 4281782940
2.142 0.035999998 -0.017999999 4281782940
2.1289999 0.034000002 0.016000001 4281782940
2.158 0.033 0.052000001 4281782940
2.21 0.032000002 -0.116 4281782940
2.1800001 0.028999999 -0.079000004 4281782940
2.164 0.027000001 -0.043000001 4281782940
2.2119999 0.021 -0.106 4281782940
2.165 0.015 0.0020000001 4281782940
2.1500001 0.013 0.037999999 4281782940
2.1459999 0.011 0.072999999 4281782940
2.1719999 0.0070000002 -0.057999998 4281782940
2.1170001 0.003 0.012 4281782940
2.161 -0.003 -0.046999998 4281782940
2.1440001 -0.0049999999 -0.012 4281782940
2.141 -0.014 -0.037 4281782940
2.1530001 -0.016000001 -0.001 4281782940
2.1429999 -0.023 -0.061999999 4281782940
2.151 -0.025 -0.027000001 4281782940
2.1340001 -0.046 -0.107 4281782940
2.1389999 -0.045000002 -0.071999997 4281782940
2.119 -0.043000001 -0.035999998 4281782940
2.1429999 -0.028999999 -0.121 4281782940
2.158 -0.027000001 -0.085000001 4281782940
2.1559999 -0.018999999 -0.109 4281782940
2.115 -0.014 -0.0020000001 4281782940
2.165 -0.001 -0.086000003 4281782940
2.1370001 0.001 -0.014 4281782940
2.158 0.0089999996 -0.037999999 4281782940
2.1659999 0.011 -0.0020000001 4281782940
2.1689999 0.017999999 -0.026000001 4281782940
2.158 0.02 0.0089999996 4281782940
2.177 0.027000001 -0.013 4281782940
2.132 0.028000001 0.021 4281782940
2.165 0.034000002 -0.035999998 4281782940
2.1400001 0.037 0.034000002 4281782940
2.145 0.041999999 0.14 4281782940
2.1849999 0.043000001 -0.024 4281782940
2.181 0.045000002 0.011 4281782940
2.1530001 0.048999999 0.117 4281782940
2.1440001 0.050000001 0.152 4281782940
2.1800001 0.050999999 -0.011 4281782940
2.1589999 0.054000001 0.059 4281782940
2.1559999 0.057999998 0.13 4281782940
2.1489999 0.059 0.16500001 4281782940
2.178 0.059999999 0 4281782940
2.1670001 0.061000001 0.035999998 4281782940
2.1659999 0.063000001 0.071999997 4281782940
2.1630001 0.064000003 0.107 4281782940
2.158 0.066 0.14300001 4281782940
2.148 0.067000002 0.178 4281782940
2.171 0.068000004 0.013 4281782940
2.1670001 0.068999998 0.048999999 4281782940
2.1789999 0.071000002 0.085000001 4281782940
2.165 0.071999997 0.12 4281782940
2.158 0.074000001 0.155 4281782940
2.148 0.075000003 0.19 4281782940
2.175 0.077 0.061999999 4281782940
2.1819999 0.079000004 0.097999997 4281782940
2.1659999 0.081 0.133 4281782940
2.1589999 0.082000002 0.168 4281782940
2.1500001 0.083999999 0.20299999 4281782940
2.175 0.083999999 0.039000001 4281782940
2.174 0.085000001 0.075000003 4281782940
2.1819999 0.086999997 0.111 4281782940
2.1719999 0.089000002 0.147 4281782940
2.164 0.090000004 0.182 4281782940
2.151 0.092 0.21699999 4281782940
2.1800001 0.090999998 0.052000001 4281782940
2.1819999 0.093000002 0.088 4281782940
2.1819999 0.094999999 0.124 4281782940
2.171 0.097000003 0.16 4281782940
2.1570001 0.097999997 0.19499999 4281782940
2.1489999 0.098999999 0.23 4281782940
2.1789999 0.098999999 0.066 4281782940
2.1819999 0.101 0.102 4281782940
2.1819999 0.103 0.138 4281782940
2.171 0.104 0.17299999 4281782940
2.1630001 0.106 0.208 4281782940
2.148 0.107 0.243 4281782940
2.1860001 0.107 0.079999998 4281782940
2.191 0.109 0.116 4281782940
2.1849999 0.11 0.152 4281782940
2.1730001 0.112 0.18700001 4281782940
2.1619999 0.113 0.222 4281782940
2.151 0.115 0.25600001 4281782940
2.188 0.114 0.093000002 4281782940
2.1889999 0.116 0.12899999 4281782940
2.184 0.118 0.16500001 4281782940
2.1700001 0.119 0.2 4281782940
2.1630001 0.121 0.235 4281782940
2.151 0.122 0.27000001 4281782940
2.188 0.121 0.107 4281782940
2.188 0.123 0.14300001 4281782940
2.178 0.124 0.178 4281782940
2.1700001 0.126 0.213 4281782940
2.161 0.12800001 0.248 4281782940
2.1500001 0.12899999 0.28299999 4281782940
2.187 0.12800001 0.12 4281782940
2.187 0.13 0.156 4281782940
2.1830001 0.132 0.192 4281782940
2.1689999 0.133 0.227 4281782940
2.1670001 0.13500001 0.26300001 4281782940
2.148 0.13600001 0.29699999 4281782940
2.1860001 0.134 0.134 4281782940
2.1860001 0.13600001 0.17 4281782940
2.181 0.138 0.206 4281782940
2.1719999 0.14 0.241 4281782940
2.1619999 0.141 0.27599999 4281782940
2.151 0.14300001 0.31099999 4281782940
2.1849999 0.141 0.148 4281782940
2.1849999 0.14300001 0.184 4281782940
2.1800001 0.145 0.219 4281782940
2.171 0.146 0.255 4281782940
2.1670001 0.148 0.29100001 4281782940
2.152 0.15000001 0.32499999 4281782940
2.187 0.147 0.162 4281782940
2.1830001 0.149 0.197 4281782940
2.1849999 0.152 0.234 4281782940
2.1719999 0.153 0.26899999 4281782940
2.1659999 0.155 0.30399999 4281782940
2.151 0.156 0.33899999 4281782940
2.1849999 0.154 0.176 4281782940
2.1889999 0.156 0.212 4281782940
2.177 0.15700001 0.24699999 4281782940
2.177 0.16 0.28400001 4281782940
2.1600001 0.161 0.31799999 4281782940
2.155 0.163 0.354 4281782940
2.184 0.16 0.19 4281782940
2.187 0.162 0.226 4281782940
2.178 0.164 0.26100001 4281782940
2.1730001 0.16599999 0.29699999 4281782940
2.165 0.168 0.333 4281782940
2.1459999 0.169 0.366 4281782940
2.1819999 0.16500001 0.204 4281782940
2.184 0.168 0.23999999 4281782940
2.1760001 0.17 0.27599999 4281782940
2.175 0.17200001 0.31200001 4281782940
2.165 0.17399999 0.347 4281782940
2.184 0.171 0.21799999 4281782940
2.1819999 0.17299999 0.25400001 4281782940
2.1760001 0.175 0.28999999 4281782940
2.174 0.178 0.32600001 4281782940
2.1630001 0.18000001 0.361 4281782940
2.1789999 0.176 0.23199999 4281782940
2.181 0.17900001 0.26800001 4281782940
2.1789999 0.18099999 0.30500001 4281782940
2.174 0.184 0.34099999 4281782940
2.1570001 0.185 0.375 4281782940
2.1830001 0.182 0.24699999 4281782940
2.177 0.184 0.28200001 4281782940
2.177 0.18700001 0.31900001 4281782940
2.168 0.18799999 0.354 4281782940
2.1960001 0.19400001 0.39700001 4281782940
2.1800001 0.18700001 0.26100001 4281782940
2.1789999 0.189 0.29699999 4281782940
2.174 0.192 0.333 4281782940
2.1700001 0.19400001 0.37 4281782940
2.1789999 0.192 0.27500001 4281782940
2.1789999 0.19400001 0.31200001 4281782940
2.174 0.197 0.34799999 4281782940
2.1700001 0.199 0.384 4281782940
2.184 0.197 0.29100001 4281782940
2.175 0.199 0.32600001 4281782940
2.1719999 0.20200001 0.36300001 4281782940
2.142 0.20200001 0.39399999 4281782940
2.174 0.20100001 0.30399999 4281782940
2.178 0.204 0.34200001 4281782940
2.178 0.207 0.37900001 4281782940
2.1800001 0.206 0.31999999 4281782940
2.177 0.208 0.35600001 4281782940
2.1730001 0.211 0.39300001 4281782940
2.178 0.20999999 0.33399999 4281782940
2.175 0.213 0.37099999 4281782940
2.2090001 0.219 0.41499999 4281782940
2.175 0.214 0.34900001 4281782940
2.1719999 0.21699999 0.38499999 4281782940
2.1730001 0.21799999 0.36399999 4281782940
2.1800001 0.221 0.40200001 4281782940
2.171 0.221 0.37799999 4281782940
2.2 0.227 0.421 4281782940
2.178 0.22499999 0.39500001 4281782940
2.1689999 0.228 0.40799999 4281782940
2.1440001 -0.044 -0.052999999 4281782940
2.1210001 -0.041999999 -0.02 4281782940
2.151 -0.032000002 -0.061999999 4281782940
2.1530001 -0.029999999 -0.029999999 4281782940
2.1059999 -0.027000001 0.0020000001 4281782940
2.131 -0.015 -0.0060000001 4281782940
2.1400001 -0.003 -0.014 4281782940
2.1600001 0.0070000002 -0.055 4281782940
2.1500001 0.0089999996 -0.022 4281782940
2.188 0.017999999 -0.097000003 4281782940
2.2090001 0.030999999 -0.106 4281782940
2.1700001 0.035 -0.039000001 4281782940
2.1459999 0.035999998 -0.0060000001 4281782940
2.2160001 0.044 -0.115 4281782940
2.194 0.046 -0.079999998 4281782940
2.1889999 0.048 -0.046999998 4281782940
2.207 0.059999999 -0.089000002 4281782940
2.204 0.061999999 -0.055 4281782940
2.1949999 0.064000003 -0.021 4281782940
2.164 0.064999998 0.011 4281782940
2.181 0.068000004 0.044 4281782940
2.2090001 0.071000002 -0.131 4281782940
2.2149999 0.075999998 -0.063000001 4281782940
2.2079999 0.078000002 -0.028999999 4281782940
2.1919999 0.079000004 0.0040000002 4281782940
2.194 0.081 0.037 4281782940
2.2320001 0.086000003 -0.14 4281782940
2.2149999 0.086999997 -0.105 4281782940
2.2179999 0.089000002 -0.071000002 4281782940
2.2119999 0.090999998 -0.037 4281782940
2.21 0.093000002 -0.003 4281782940
2.2 0.094999999 0.029999999 4281782940
2.2379999 0.1 -0.148 4281782940
2.2409999 0.102 -0.113 4281782940
2.237 0.104 -0.079000004 4281782940
2.233 0.106 -0.044 4281782940
2.221 0.107 -0.0099999998 4281782940
2.2119999 0.109 0.023 4281782940
2.2490001 0.114 -0.156 4281782940
2.2490001 0.116 -0.121 4281782940
2.2490001 0.118 -0.086000003 4281782940
2.24 0.12 -0.052000001 4281782940
2.233 0.122 -0.017000001 4281782940
2.227 0.124 0.016000001 4281782940
2.2590001 0.12899999 -0.164 4281782940
2.2609999 0.131 -0.12899999 4281782940
2.26 0.133 -0.093999997 4281782940
2.2509999 0.13500001 -0.059 4281782940
2.2420001 0.13600001 -0.024 4281782940
2.2290001 0.138 0.0089999996 4281782940
2.257 0.14300001 -0.171 4281782940
2.27 0.146 -0.13699999 4281782940
2.2709999 0.148 -0.102 4281782940
2.266 0.15000001 -0.066 4281782940
2.256 0.152 -0.030999999 4281782940
2.2449999 0.153 0.003 4281782940
2.2309999 0.156 -0.176 4281782940
2.2820001 0.161 -0.145 4281782940
2.28 0.163 -0.109 4281782940
2.2750001 0.16500001 -0.072999999 4281782940
2.2650001 0.16599999 -0.037999999 4281782940
2.2539999 0.168 -0.003 4281782940
2.2869999 0.177 -0.152 4281782940
2.2920001 0.17900001 -0.116 4281782940
2.283 0.18000001 -0.079999998 4281782940
2.2780001 0.182 -0.045000002 4281782940
2.2690001 0.184 -0.0089999996 4281782940
2.266 0.19 -0.15700001 4281782940
2.3039999 0.19499999 -0.124 4281782940
2.2869999 0.19499999 -0.086999997 4281782940
2.283 0.197 -0.050999999 4281782940
2.277 0.199 -0.016000001 4281782940
2.3099999 0.20999999 -0.13 4281782940
2.303 0.212 -0.093999997 4281782940
2.289 0.212 -0.057 4281782940
2.28 0.214 -0.022 4281782940
2.3 0.22499999 -0.13600001 4281782940
2.322 0.229 -0.101 4281782940
2.3069999 0.229 -0.064000003 4281782940
2.299 0.23100001 -0.028000001 4281782940
2.279 0.237 -0.141 4281782940
2.3329999 0.245 -0.108 4281782940
2.3210001 0.24600001 -0.07 4281782940
2.3150001 0.24699999 -0.034000002 4281782940
2.3329999 0.25999999 -0.113 4281782940
2.332 0.26199999 -0.077 4281782940
2.3269999 0.264 -0.039999999 4281782940
2.3150001 0.27399999 -0.118 4281782940
2.3399999 0.27900001 -0.082000002 4281782940
2.335 0.28 -0.045000002 4281782940
2.2939999 0.287 -0.123 4281782940
2.355 0.296 -0.089000002 4281782940
2.3429999 0.29699999 -0.050999999 4281782940
2.352 0.31200001 -0.093999997 4281782940
2.352 0.31400001 -0.056000002 4281782940
2.3280001 0.324 -0.097999997 4281782940
2.3710001 0.33199999 -0.061999999 4281782940
2.381 0.34999999 -0.067000002 4281782940
2.3770001 0.36500001 -0.071999997 4281782940
2.358 0.37799999 -0.075000003 4281782940
2.2290001 0.35800001 0.32100001 4281782940
2.2179999 0.354 0.35600001 4281782940
2.1989999 0.34999999 0.38999999 4281782940
2.1800001 0.345 0.42399999 4281782940
2.214 0.34900001 0.46900001 4281782940
2.2490001 0.34799999 0.31400001 4281782940
2.2420001 0.345 0.34999999 4281782940
2.227 0.34099999 0.38499999 4281782940
2.207 0.336 0.419 4281782940
2.178 0.33000001 0.45100001 4281782940
2.244 0.33500001 0.30399999 4281782940
2.2460001 0.333 0.34099999 4281782940
2.2409999 0.33000001 0.37799999 4281782940
2.2309999 0.32699999 0.414 4281782940
2.2149999 0.32300001 0.44800001 4281782940
2.244 0.322 0.294 4281782940
2.2379999 0.31900001 0.33000001 4281782940
2.2360001 0.317 0.36700001 4281782940
2.2260001 0.31400001 0.40200001 4281782940
2.217 0.31099999 0.43799999 4281782940
2.24 0.30899999 0.28299999 4281782940
2.233 0.30599999 0.31900001 4281782940
2.2320001 0.30399999 0.35499999 4281782940
2.2190001 0.30000001 0.38999999 4281782940
2.2130001 0.29800001 0.42699999 4281782940
2.2249999 0.29800001 0.46700001 4281782940
2.2379999 0.29699999 0.273 4281782940
2.2320001 0.294 0.308 4281782940
2.2260001 0.29100001 0.34400001 4281782940
2.2190001 0.28799999 0.38 4281782940
2.2090001 0.285 0.41499999 4281782940
2.1919999 0.28099999 0.449 4281782940
2.2320001 0.28400001 0.26199999 4281782940
2.2249999 0.28099999 0.29699999 4281782940
2.2249999 0.27900001 0.333 4281782940
2.2130001 0.27500001 0.368 4281782940
2.207 0.273 0.40400001 4281782940
2.187 0.26800001 0.43700001 4281782940
2.2260001 0.271 0.25099999 4281782940
2.2279999 0.26899999 0.287 4281782940
2.2179999 0.266 0.322 4281782940
2.2130001 0.26300001 0.35699999 4281782940
2.1960001 0.259 0.391 4281782940
2.187 0.25600001 0.42500001 4281782940
2.2260001 0.259 0.23999999 4281782940
2.2219999 0.257 0.27599999 4281782940
2.2160001 0.25400001 0.31099999 4281782940
2.21 0.25099999 0.34599999 4281782940
2.194 0.24699999 0.37900001 4281782940
2.181 0.244 0.41299999 4281782940
2.223 0.24699999 0.229 4281782940
2.2160001 0.244 0.264 4281782940
2.214 0.242 0.29899999 4281782940
2.201 0.23899999 0.333 4281782940
2.1930001 0.236 0.368 4281782940
2.1789999 0.23199999 0.40099999 4281782940
2.2190001 0.236 0.21799999 4281782940
2.2130001 0.233 0.25299999 4281782940
2.2090001 0.23 0.28799999 4281782940
2.2 0.227 0.322 4281782940
2.188 0.22400001 0.35600001 4281782940
2.177 0.221 0.38999999 4281782940
2.2160001 0.22400001 0.207 4281782940
2.207 0.221 0.241 4281782940
2.2079999 0.219 0.27599999 4281782940
2.1960001 0.21600001 0.31 4281782940
2.184 0.212 0.34400001 4281782940
2.1719999 0.20900001 0.377 4281782940
2.21 0.212 0.19599999 4281782940
2.201 0.20900001 0.23 4281782940
2.2 0.207 0.264 4281782940
2.194 0.204 0.29800001 4281782940
2.1860001 0.20200001 0.33199999 4281782940
2.1689999 0.198 0.36500001 4281782940
2.2119999 0.20100001 0.185 4281782940
2.2 0.198 0.21799999 4281782940
2.1960001 0.19599999 0.25299999 4281782940
2.1900001 0.193 0.287 4281782940
2.184 0.191 0.32100001 4281782940
2.168 0.18700001 0.35299999 4281782940
2.2019999 0.19 0.17299999 4281782940
2.1960001 0.18700001 0.207 4281782940
2.194 0.185 0.241 4281782940
2.1900001 0.182 0.27500001 4281782940
2.1800001 0.18000001 0.308 4281782940
2.1600001 0.176 0.34 4281782940
2.2019999 0.17900001 0.162 4281782940
2.1949999 0.176 0.19499999 4281782940
2.1960001 0.17399999 0.229 4281782940
2.1860001 0.17200001 0.26300001 4281782940
2.175 0.169 0.296 4281782940
2.1589999 0.16599999 0.32800001 4281782940
2.1960001 0.168 0.15000001 4281782940
2.1949999 0.16599999 0.184 4281782940
2.191 0.164 0.21799999 4281782940
2.1860001 0.161 0.25099999 4281782940
2.175 0.15899999 0.28400001 4281782940
2.155 0.155 0.315 4281782940
2.1930001 0.15800001 0.138 4281782940
2.194 0.156 0.17200001 4281782940
2.1900001 0.154 0.206 4281782940
2.1819999 0.15099999 0.23899999 4281782940
2.1700001 0.148 0.27200001 4281782940
2.154 0.145 0.303 4281782940
2.1930001 0.148 0.127 4281782940
2.1960001 0.146 0.161 4281782940
2.1889999 0.14300001 0.19400001 4281782940
2.181 0.141 0.227 4281782940
2.164 0.138 0.259 4281782940
2.1489999 0.13500001 0.28999999 4281782940
2.1900001 0.138 0.115 4281782940
2.1919999 0.13600001 0.148 4281782940
2.191 0.134 0.182 4281782940
2.175 0.131 0.214 4281782940
2.164 0.12800001 0.24699999 4281782940
2.151 0.125 0.278 4281782940
2.1919999 0.12800001 0.103 4281782940
2.1930001 0.126 0.13699999 4281782940
2.187 0.124 0.17 4281782940
2.1760001 0.121 0.20200001 4281782940
2.165 0.118 0.234 4281782940
2.1500001 0.116 0.266 4281782940
2.1889999 0.118 0.090999998 4281782940
2.1889999 0.116 0.124 4281782940
2.187 0.114 0.15800001 4281782940
2.171 0.111 0.19 4281782940
2.1619999 0.109 0.222 4281782940
2.1470001 0.106 0.25299999 4281782940
2.1819999 0.108 0.079000004 4281782940
2.187 0.107 0.112 4281782940
2.1849999 0.105 0.145 4281782940
2.1719999 0.102 0.177 4281782940
2.1619999 0.1 0.20999999 4281782940
2.1459999 0.097000003 0.241 4281782940
2.184 0.098999999 0.067000002 4281782940
2.177 0.097000003 0.1 4281782940
2.181 0.094999999 0.133 4281782940
2.1659999 0.093000002 0.16500001 4281782940
2.1589999 0.090999998 0.197 4281782940
2.145 0.088 0.228 4281782940
2.1800001 0.090000004 0.055 4281782940
2.177 0.088 0.086999997 4281782940
2.1819999 0.086000003 0.12 4281782940
2.1700001 0.083999999 0.152 4281782940
2.165 0.082000002 0.185 4281782940
2.1459999 0.079000004 0.21600001 4281782940
2.175 0.081 0.041999999 4281782940
2.171 0.079000004 0.075000003 4281782940
2.1819999 0.077 0.108 4281782940
2.164 0.075000003 0.139 4281782940
2.161 0.072999999 0.17200001 4281782940
2.148 0.071000002 0.20299999 4281782940
2.2130001 0.072999999 0.030999999 4281782940
2.1630001 0.07 0.061999999 4281782940
2.1719999 0.068000004 0.094999999 4281782940
2.164 0.066 0.127 4281782940
2.161 0.064999998 0.15899999 4281782940
2.1429999 0.061999999 0.19 4281782940
2.164 0.063000001 0.017999999 4281782940
2.164 0.061000001 0.050000001 4281782940
2.161 0.059999999 0.082000002 4281782940
2.1659999 0.057999998 0.115 4281782940
2.1570001 0.056000002 0.146 4281782940
2.1429999 0.054000001 0.177 4281782940
2.207 0.056000002 0.0049999999 4281782940
2.1600001 0.050999999 0.068999998 4281782940
2.1559999 0.048999999 0.101 4281782940
2.158 0.048 0.134 4281782940
2.1459999 0.046 0.16500001 4281782940
2.184 0.045000002 0.025 4281782940
2.1630001 0.043000001 0.057 4281782940
2.141 0.039000001 0.12 4281782940
2.1389999 0.037999999 0.15099999 4281782940
2.2049999 0.039000001 -0.018999999 4281782940
2.122 0.033 0.074000001 4281782940
2.1389999 0.029999999 0.138 4281782940
2.197 0.030999999 -0.032000002 4281782940
2.1619999 0.027000001 0.030999999 4281782940
2.1199999 0.025 0.061999999 4281782940
2.119 0.022 0.124 4281782940
2.1900001 0.021 -0.013 4281782940
2.1500001 0.018999999 0.017999999 4281782940
2.115 0.015 0.111 4281782940
2.1630001 0.015 -0.057999998 4281782940
2.184 0.013 -0.026000001 4281782940
2.1730001 0.0049999999 -0.0070000002 4281782940
2.1589999 -0.0020000001 -0.021 4281782940
2.1229999 -0.003 0.0099999998 4281782940
2.125 -0.017000001 -0.016000001 4281782940
2.184 -0.021 -0.125 4281782940
2.1670001 -0.022 -0.093000002 4281782940
2.1589999 -0.023 -0.061000001 4281782940
2.1210001 -0.023 -0.028999999 4281782940
2.109 -0.024 0.001 4281782940
2.165 -0.028000001 -0.138 4281782940
2.1470001 -0.028999999 -0.074000001 4281782940
2.1199999 -0.028999999 -0.041999999 4281782940
2.109 -0.029999999 -0.012 4281782940
2.1630001 -0.034000002 -0.15099999 4281782940
2.161 -0.035 -0.12 4281782940
2.155 -0.035999998 -0.088 4281782940
2.118 -0.037 0.0040000002 4281782940
2.174 -0.041000001 -0.16599999 4281782940
2.178 -0.041999999 -0.13500001 4281782940
2.1670001 -0.041999999 -0.102 4281782940
2.1470001 -0.041999999 -0.07 4281782940
2.1600001 -0.048 -0.147 4281782940
2.1630001 -0.048 -0.116 4281782940
2.1440001 -0.048 -0.083999999 4281782940
1.947 0.53399998 -0.23999999 4289884939
1.9299999 0.509 -0.21699999 4289884939
1.9579999 0.50599998 -0.20999999 4289884939
1.92 0.48899999 -0.228 4289884939
1.971 0.49900001 -0.20100001 4289884939
1.933 0.484 -0.25099999 4289884939
1.936 0.48199999 -0.22 4289884939
1.987 0.493 -0.193 4289884939
1.964 0.479 -0.213 4289884939
2.016 0.48899999 -0.186 4289884939
1.923 0.461 -0.23100001 4289884939
1.98 0.472 -0.205 4289884939
2.029 0.48100001 -0.177 4289884939
1.885 0.44400001 -0.248 4289884939
1.946 0.45500001 -0.22400001 4289884939
1.994 0.46399999 -0.197 4289884939
2.0569999 0.477 -0.169 4289884939
1.915 0.44 -0.243 4289884939
1.967 0.449 -0.21699999 4289884939
2.023 0.46000001 -0.19 4289884939
2.073 0.46900001 -0.161 4289884939
1.932 0.433 -0.236 4289884939
1.988 0.44299999 -0.20999999 4289884939
2.0380001 0.45199999 -0.182 4289884939
2.0999999 0.463 -0.153 4289884939
1.947 0.42500001 -0.229 4289884939
2.006 0.435 -0.20299999 4289884939
2.0669999 0.44600001 -0.175 4289884939
2.1210001 0.456 -0.145 4289884939
1.92 0.41 -0.248 4289884939
1.969 0.41800001 -0.222 4289884939
2.0280001 0.428 -0.19599999 4289884939
2.0840001 0.43799999 -0.167 4289884939
2.1489999 0.449 -0.13699999 4289884939
1.9299999 0.40099999 -0.241 4289884939
1.997 0.41299999 -0.21600001 4289884939
2.0420001 0.41999999 -0.18799999 4289884939
2.1040001 0.43000001 -0.15899999 4289884939
2.1700001 0.44100001 -0.12899999 4289884939
1.9529999 0.39399999 -0.235 4289884939
2.016 0.405 -0.20999999 4289884939
2.073 0.414 -0.182 4289884939
2.1270001 0.42199999 -0.152 4289884939
2.1989999 0.435 -0.121 4289884939
1.919 0.37900001 -0.25400001 4289884939
1.972 0.38699999 -0.229 4289884939
2.0309999 0.396 -0.20200001 4289884939
2.086 0.405 -0.17399999 4289884939
2.1470001 0.414 -0.14399999 4289884939
2.2190001 0.426 -0.113 4289884939
1.924 0.368 -0.24699999 4289884939
1.994 0.37900001 -0.223 4289884939
2.0510001 0.38800001 -0.19599999 4289884939
2.109 0.396 -0.167 4289884939
2.1700001 0.40599999 -0.13600001 4289884939
2.244 0.41800001 -0.105 4289884939
1.946 0.361 -0.241 4289884939
2.0150001 0.37099999 -0.21699999 4289884939
2.069 0.37900001 -0.189 4289884939
2.132 0.38800001 -0.16 4289884939
2.191 0.39700001 -0.12899999 4289884939
2.279 0.41 -0.097000003 4289884939
1.964 0.352 -0.235 4289884939
2.036 0.36300001 -0.211 4289884939
2.092 0.37 -0.182 4289884939
2.1500001 0.37799999 -0.152 4289884939
2.2190001 0.38800001 -0.122 4289884939
2.3010001 0.40099999 -0.089000002 4289884939
1.987 0.34400001 -0.23 4289884939
2.0539999 0.35299999 -0.204 4289884939
2.1129999 0.361 -0.176 4289884939
2.1789999 0.37 -0.146 4289884939
2.2379999 0.37799999 -0.114 4289884939
2.3329999 0.39199999 -0.081 4289884939
2.007 0.33500001 -0.22499999 4289884939
2.0710001 0.34400001 -0.198 4289884939
2.1329999 0.352 -0.169 4289884939
2.2 0.36000001 -0.139 4289884939
2.273 0.37 -0.107 4289884939
2.0320001 0.32699999 -0.219 4289884939
2.0929999 0.33500001 -0.192 4289884939
2.154 0.34200001 -0.163 4289884939
2.2219999 0.35100001 -0.132 4289884939
2.2969999 0.36000001 -0.098999999 4289884939
2.0450001 0.317 -0.213 4289884939
2.112 0.32499999 -0.186 4289884939
2.178 0.33199999 -0.156 4289884939
2.24 0.34 -0.125 4289884939
2.0710001 0.308 -0.208 4289884939
2.1359999 0.315 -0.18000001 4289884939
2.1989999 0.322 -0.15000001 4289884939
2.2750001 0.331 -0.118 4289884939
2.0910001 0.29800001 -0.20299999 4289884939
2.1530001 0.30399999 -0.17399999 4289884939
2.221 0.31200001 -0.14300001 4289884939
2.3 0.31999999 -0.111 4289884939
2.1070001 0.287 -0.197 4289884939
2.1760001 0.294 -0.168 4289884939
2.243 0.301 -0.13699999 4289884939
2.1229999 0.27599999 -0.191 4289884939
2.197 0.28299999 -0.162 4289884939
2.273 0.28999999 -0.131 4289884939
2.142 0.264 -0.185 4289884939
2.217 0.271 -0.156 4289884939
2.1600001 0.25299999 -0.18000001 4289884939
2.243 0.25999999 -0.15099999 4289884939
2.1860001 0.242 -0.175 4289884939
2.2620001 0.248 -0.145 4289884939
2.2060001 0.23 -0.17 4289884939
2.224 0.21799999 -0.16500001 4289884939
2.2479999 0.206 -0.16 4289884939
2.3529999 0.43799999 -0.061999999 4289884939
2.3529999 0.454 -0.057999998 4289884939
2.3540001 0.45500001 -0.02 4289884939
2.3399999 0.46799999 -0.052999999 4289884939
2.326 0.46599999 -0.015 4289884939
2.312 0.479 -0.048 4289884939
2.3 0.477 -0.011 4289884939
2.2920001 0.491 -0.043000001 4289884939
2.2620001 0.5 -0.037999999 4289884939
2.2409999 0.51099998 -0.033 4289884939
2.1459999 0.0070000002 -0.249 4289884939
2.1389999 0.012 -0.24600001 4289884939
2.154 0.018999999 -0.24600001 4289884939
2.152 0.026000001 -0.243 4289884939
2.1300001 0.028999999 -0.255 4289884939
2.1700001 0.033 -0.27500001 4289884939
2.1500001 0.035 -0.23999999 4289884939
2.1210001 0.037999999 -0.25099999 4289884939
2.1530001 0.044 -0.237 4289884939
2.1270001 0.048 -0.249 4289884939
2.1199999 0.057 -0.27599999 4289884939
1.9220001 0.704 -0.16599999 4289884939
1.954 0.70099998 -0.12800001 4289884939
1.9400001 0.68699998 -0.185 4289884939
1.967 0.66799998 -0.105 4289884939
2.007 0.67000002 -0.133 4289884939
1.987 0.662 -0.098999999 4289884939
2.0179999 0.66000003 -0.126 4289884939
1.994 0.65100002 -0.090999998 4289884939
2 0.64300001 -0.15099999 4289884939
2.0309999 0.65100002 -0.12 4289884939
2.01 0.64300001 -0.085000001 4289884939
2.029 0.63800001 -0.146 4289884939
2.0420001 0.64099997 -0.113 4289884939
2.0309999 0.63599998 -0.079000004 4289884939
2.0380001 0.62800002 -0.14 4289884939
2.0580001 0.63200003 -0.107 4289884939
1.9960001 0.60299999 -0.163 4289884939
2.056 0.61900002 -0.134 4289884939
2.072 0.62199998 -0.101 4289884939
2.013 0.59399998 -0.15800001 4289884939
2.0769999 0.611 -0.12899999 4289884939
2.092 0.61400002 -0.094999999 4289884939
2.03 0.58499998 -0.153 4289884939
2.095 0.602 -0.123 4289884939
2.1040001 0.60299999 -0.089000002 4289884939
2.046 0.57599998 -0.148 4289884939
2.118 0.59399998 -0.118 4289884939
2.118 0.59299999 -0.082999997 4289884939
1.999 0.551 -0.171 4289884939
2.062 0.56599998 -0.14300001 4289884939
2.1400001 0.58600003 -0.113 4289884939
2.138 0.58399999 -0.077 4289884939
2.0220001 0.54299998 -0.167 4289884939
2.082 0.55699998 -0.138 4289884939
2.155 0.57499999 -0.107 4289884939
2.154 0.57300001 -0.071999997 4289884939
2.0309999 0.53200001 -0.162 4289884939
2.1040001 0.54900002 -0.133 4289884939
2.174 0.565 -0.102 4289884939
2.1719999 0.56300002 -0.066 4289884939
2.0550001 0.52399999 -0.15899999 4289884939
2.118 0.53799999 -0.12899999 4289884939
2.194 0.55500001 -0.097000003 4289884939
2.1930001 0.55299997 -0.061000001 4289884939
2.0680001 0.51300001 -0.154 4289884939
2.1359999 0.52700001 -0.124 4289884939
2.21 0.54400003 -0.092 4289884939
2.2049999 0.54100001 -0.056000002 4289884939
2.0799999 0.50099999 -0.149 4289884939
2.155 0.51700002 -0.12 4289884939
2.233 0.53399998 -0.086999997 4289884939
2.2279999 0.53100002 -0.050999999 4289884939
2.0940001 0.49000001 -0.145 4289884939
2.1689999 0.505 -0.115 4289884939
2.2509999 0.523 -0.082999997 4289884939
2.2479999 0.52100003 -0.046 4289884939
2.1070001 0.47799999 -0.141 4289884939
2.1900001 0.495 -0.111 4289884939
2.2590001 0.509 -0.078000002 4289884939
2.2720001 0.50999999 -0.041000001 4289884939
2.125 0.46700001 -0.138 4289884939
2.204 0.48300001 -0.107 4289884939
2.29 0.5 -0.074000001 4289884939
2.2950001 0.49900001 -0.035999998 4289884939
2.142 0.456 -0.134 4289884939
2.221 0.47099999 -0.103 4289884939
2.3080001 0.48800001 -0.068999998 4289884939
2.3099999 0.486 -0.032000002 4289884939
2.165 0.44600001 -0.131 4289884939
2.243 0.46000001 -0.098999999 4289884939
2.3239999 0.47499999 -0.064999998 4289884939
2.339 0.47600001 -0.028000001 4289884939
2.177 0.433 -0.127 4289884939
2.2550001 0.447 -0.094999999 4289884939
2.3410001 0.46200001 -0.061000001 4289884939
2.362 0.46399999 -0.023 4289884939
2.1889999 0.41999999 -0.124 4289884939
2.2720001 0.43399999 -0.092 4289884939
2.358 0.449 -0.057 4289884939
2.204 0.40799999 -0.121 4289884939
2.2820001 0.41999999 -0.088 4289884939
2.2249999 0.396 -0.118 4289884939
2.306 0.40900001 -0.085000001 4289884939
2.2360001 0.38299999 -0.115 4289884939
2.326 0.396 -0.082000002 4289884939
2.2520001 0.37 -0.112 4289884939
2.2709999 0.35699999 -0.11 4289884939
2.2880001 0.34400001 -0.108 4289884939
2.303 0.33000001 -0.106 4289884939
2.154 0.013 -0.259 4289884939
2.1589999 0.014 -0.245 4289884939
2.168 0.016000001 -0.26800001 4289884939
2.1500001 0.016000001 -0.25 4289884939
2.1570001 0.017000001 -0.242 4289884939
2.1470001 0.017999999 -0.26300001 4289884939
2.1400001 0.017000001 -0.24699999 4289884939
2.1689999 0.056000002 -0.228 4289884939
2.1359999 0.061000001 -0.23800001 4289884939
2.108 0.067000002 -0.249 4289884939
2.1730001 0.071000002 -0.223 4289884939
2.086 0.072999999 -0.259 4289884939
2.1470001 0.077 -0.234 4289884939
2.1170001 0.082999997 -0.244 4289884939
2.1800001 0.086999997 -0.21799999 4289884939
2.086 0.089000002 -0.25400001 4289884939
2.1559999 0.093999997 -0.229 4289884939
2.0680001 0.094999999 -0.26499999 4289884939
2.119 0.1 -0.23899999 4289884939
2.1819999 0.105 -0.212 4289884939
2.092 0.106 -0.249 4289884939
2.1559999 0.111 -0.223 4289884939
2.0739999 0.113 -0.259 4289884939
2.1259999 0.118 -0.233 4289884939
2.1819999 0.123 -0.205 4289884939
2.0569999 0.12 -0.27000001 4289884939
2.1010001 0.124 -0.243 4289884939
2.1570001 0.13 -0.21600001 4289884939
2.2179999 0.13600001 -0.18799999 4289884939
2.0710001 0.13 -0.252 4289884939
2.1289999 0.13600001 -0.22499999 4289884939
2.1889999 0.142 -0.198 4289884939
2.0569999 0.13699999 -0.26199999 4289884939
2.1040001 0.14300001 -0.235 4289884939
2.1570001 0.149 -0.208 4289884939
2.027 0.14399999 -0.27000001 4289884939
2.0739999 0.149 -0.244 4289884939
2.1259999 0.155 -0.21699999 4289884939
2.05 0.156 -0.25299999 4289884939
2.1070001 0.162 -0.227 4289884939
2.0239999 0.162 -0.26100001 4289884939
2.076 0.168 -0.235 4289884939
2.0120001 0.17 -0.271 4289884939
2.053 0.175 -0.244 4289884939
2.0320001 0.182 -0.25299999 4289884939
2.0079999 0.189 -0.26100001 4289884939
1.998 0.197 -0.271 4289884939
2.072 0.118 -0.26100001 4289884939
2.0239999 0.114 -0.27500001 4289884939
2.0829999 0.115 -0.248 4289884939
2.0680001 0.114 -0.26699999 4289884939
2.1140001 0.114 -0.237 4289884939
2.096 0.112 -0.25600001 4289884939
2.138 0.112 -0.22499999 4289884939
2.069 0.11 -0.273 4289884939
2.098 0.109 -0.242 4289884939
2.1719999 0.111 -0.214 4289884939
2.0739999 0.106 -0.25999999 4289884939
2.125 0.107 -0.23 4289884939
2.2 0.109 -0.20200001 4289884939
2.0339999 0.103 -0.27500001 4289884939
2.1010001 0.104 -0.249 4289884939
2.1559999 0.105 -0.219 4289884939
2.0699999 0.101 -0.266 4289884939
2.1199999 0.101 -0.236 4289884939
2.188 0.102 -0.207 4289884939
2.0899999 0.097999997 -0.25400001 4289884939
2.145 0.097999997 -0.22499999 4289884939
2.109 0.093999997 -0.242 4289884939
2.184 0.096000001 -0.214 4289884939
2.0699999 0.090000004 -0.259 4289884939
2.135 0.090999998 -0.23100001 4289884939
2.073 0.086999997 -0.28 4289884939
2.0969999 0.086000003 -0.248 4289884939
2.1700001 0.086999997 -0.219 4289884939
2.062 0.082000002 -0.26499999 4289884939
2.128 0.082999997 -0.237 4289884939
2.0869999 0.078000002 -0.25400001 4289884939
2.1670001 0.079000004 -0.227 4289884939
2.1140001 0.074000001 -0.243 4289884939
2.187 0.074000001 -0.214 4289884939
2.1370001 0.068999998 -0.23100001 4289884939
2.1700001 0.064000003 -0.221 4289884939
2.1849999 0.103 -0.205 4289884939
2.165 0.113 -0.214 4289884939
2.132 0.122 -0.222 4289884939
2.2030001 0.12800001 -0.19499999 4289884939
2.109 0.131 -0.23 4289884939
2.175 0.13699999 -0.204 4289884939
2.0899999 0.141 -0.23800001 4289884939
2.154 0.147 -0.212 4289884939
2.22 0.154 -0.184 4289884939
2.063 0.15000001 -0.245 4289884939
2.125 0.15700001 -0.219 4289884939
2.194 0.164 -0.192 4289884939
2.0369999 0.15899999 -0.252 4289884939
2.0999999 0.16599999 -0.227 4289884939
2.1630001 0.17299999 -0.2 4289884939
2.2349999 0.18099999 -0.171 4289884939
2.016 0.169 -0.259 4289884939
2.079 0.176 -0.234 4289884939
2.1440001 0.183 -0.208 4289884939
2.204 0.19 -0.17900001 4289884939
1.993 0.178 -0.266 4289884939
2.062 0.185 -0.242 4289884939
2.1110001 0.192 -0.214 4289884939
2.178 0.2 -0.18700001 4289884939
2.243 0.208 -0.15700001 4289884939
2.043 0.19499999 -0.249 4289884939
2.095 0.20200001 -0.222 4289884939
2.1589999 0.20999999 -0.19499999 4289884939
2.22 0.21799999 -0.16500001 4289884939
2.0109999 0.20299999 -0.25400001 4289884939
2.073 0.211 -0.229 4289884939
2.1359999 0.22 -0.20200001 4289884939
2.191 0.227 -0.17200001 4289884939
2.253 0.236 -0.142 4289884939
1.9910001 0.213 -0.26100001 4289884939
2.052 0.221 -0.236 4289884939
2.109 0.229 -0.208 4289884939
2.1689999 0.237 -0.18000001 4289884939
2.24 0.24699999 -0.15000001 4289884939
1.974 0.222 -0.26699999 4289884939
2.03 0.23 -0.242 4289884939
2.096 0.23899999 -0.21600001 4289884939
2.1500001 0.248 -0.18700001 4289884939
2.2119999 0.257 -0.15800001 4289884939
2.0079999 0.23899999 -0.248 4289884939
2.062 0.24699999 -0.221 4289884939
2.119 0.25600001 -0.193 4289884939
2.1860001 0.266 -0.16500001 4289884939
1.932 0.23999999 -0.278 4289884939
1.999 0.25 -0.255 4289884939
2.046 0.257 -0.228 4289884939
2.0999999 0.266 -0.2 4289884939
2.165 0.27599999 -0.17200001 4289884939
1.978 0.259 -0.25999999 4289884939
2.0280001 0.26699999 -0.234 4289884939
2.085 0.27599999 -0.207 4289884939
2.142 0.28600001 -0.178 4289884939
1.96 0.26800001 -0.266 4289884939
2.007 0.27599999 -0.23999999 4289884939
2.0599999 0.285 -0.213 4289884939
2.1199999 0.296 -0.185 4289884939
1.994 0.287 -0.24600001 4289884939
2.0380001 0.29499999 -0.21799999 4289884939
2.0969999 0.30500001 -0.19 4289884939
1.974 0.296 -0.25099999 4289884939
2.023 0.30500001 -0.22400001 4289884939
2.079 0.315 -0.19599999 4289884939
1.952 0.30399999 -0.25600001 4289884939
2 0.31299999 -0.229 4289884939
2.0569999 0.324 -0.20200001 4289884939
1.9400001 0.31400001 -0.26100001 4289884939
1.992 0.324 -0.235 4289884939
2.04 0.33399999 -0.207 4289884939
1.9529999 0.329 -0.27000001 4289884939
2.023 0.34400001 -0.213 4289884939
1.99 0.25999999 -0.28299999 4289884939
1.9809999 0.25299999 -0.27000001 4289884939
2 0.25 -0.259 4289884939
2.0150001 0.245 -0.249 4289884939
1.9859999 0.23800001 -0.26499999 4289884939
2.036 0.241 -0.23800001 4289884939
2.0109999 0.237 -0.28999999 4289884939
2.0079999 0.234 -0.25600001 4289884939
2.0599999 0.237 -0.228 4289884939
2.003 0.229 -0.27599999 4289884939
2.03 0.229 -0.24600001 4289884939
2.092 0.234 -0.219 4289884939
2.0179999 0.223 -0.26499999 4289884939
2.0550001 0.22499999 -0.236 4289884939
2.112 0.229 -0.208 4289884939
1.982 0.215 -0.28099999 4289884939
2.0309999 0.21799999 -0.25400001 4289884939
2.0769999 0.22 -0.226 4289884939
2.1429999 0.22499999 -0.198 4289884939
1.995 0.20900001 -0.271 4289884939
2.0420001 0.211 -0.243 4289884939
2.1059999 0.215 -0.21600001 4289884939
2.174 0.22 -0.18700001 4289884939
2.0079999 0.20299999 -0.25999999 4289884939
2.0669999 0.206 -0.234 4289884939
2.1259999 0.20999999 -0.205 4289884939
2.2019999 0.215 -0.176 4289884939
