# .PCD v0.7 - Point Cloud Data file format
VERSION 0.7
FIELDS x y z rgb
SIZE 4 4 4 4
TYPE F F F U
COUNT 1 1 1 1
WIDTH 1272
HEIGHT 1
VIEWPOINT 0 0 0 1 0 0 0
POINTS 1272
DATA ascii
3.4890001 1.988 0.0089999996 4288294823
3.4879999 1.988 0.075000003 4288294823
3.483 1.987 0.14 4288294823
3.4660001 1.979 0.205 4288294823
3.4590001 1.98 0.271 4288294823
3.516 1.98 -0.041999999 4288294823
3.52 1.9809999 0.023 4288294823
3.5139999 1.979 0.089000002 4288294823
3.5079999 1.978 0.155 4288294823
3.4979999 1.975 0.221 4288294823
3.484 1.971 0.287 4288294823
3.5090001 1.952 -0.028000001 4288294823
3.507 1.95 0.037 4288294823
3.516 1.956 0.103 4288294823
3.526 1.9630001 0.17 4288294823
3.523 1.965 0.236 4288294823
3.513 1.964 0.30199999 4288294823
3.5009999 1.923 -0.014 4288294823
3.503 1.923 0.050000001 4288294823
3.5050001 1.926 0.116 4288294823
3.5209999 1.936 0.183 4288294823
3.5209999 1.9400001 0.249 4288294823
3.523 1.946 0.31600001 4288294823
3.4949999 1.8940001 -0.001 4288294823
3.4979999 1.896 0.063000001 4288294823
3.5020001 1.9 0.12800001 4288294823
3.5109999 1.9069999 0.19499999 4288294823
3.51 1.909 0.26100001 4288294823
3.52 1.919 0.329 4288294823
3.493 1.868 0.0099999998 4288294823
3.4890001 1.8660001 0.075000003 4288294823
3.494 1.87 0.141 4288294823
3.5 1.876 0.206 4288294823
3.5050001 1.881 0.273 4288294823
3.5120001 1.89 0.34 4288294823
3.4809999 1.837 0.023 4288294823
3.4860001 1.839 0.086999997 4288294823
3.4860001 1.841 0.152 4288294823
3.4949999 1.848 0.21799999 4288294823
3.5009999 1.855 0.28400001 4288294823
3.5050001 1.8609999 0.35100001 4288294823
3.4749999 1.808 0.034000002 4288294823
3.474 1.808 0.097999997 4288294823
3.4849999 1.8150001 0.163 4288294823
3.487 1.819 0.229 4288294823
3.494 1.826 0.29499999 4288294823
3.4979999 1.832 0.361 4288294823
3.4690001 1.78 0.045000002 4288294823
3.467 1.779 0.109 4288294823
3.4760001 1.785 0.17399999 4288294823
3.4760001 1.788 0.23800001 4288294823
3.484 1.795 0.30399999 4288294823
3.4879999 1.801 0.37 4288294823
3.4579999 1.749 0.056000002 4288294823
3.4579999 1.749 0.119 4288294823
3.4660001 1.755 0.184 4288294823
3.471 1.7589999 0.248 4288294823
3.4790001 1.767 0.31400001 4288294823
3.48 1.772 0.37900001 4288294823
3.447 1.717 0.066 4288294823
3.4579999 1.723 0.12899999 4288294823
3.4579999 1.725 0.193 4288294823
3.4679999 1.732 0.25799999 4288294823
3.47 1.7359999 0.32300001 4288294823
3.4719999 1.742 0.38800001 4288294823
3.4449999 1.691 0.075000003 4288294823
3.4400001 1.689 0.138 4288294823
3.4549999 1.698 0.20200001 4288294823
3.454 1.7 0.266 4288294823
3.46 1.706 0.331 4288294823
3.4679999 1.714 0.39700001 4288294823
3.438 1.6619999 0.085000001 4288294823
3.4349999 1.661 0.147 4288294823
3.447 1.668 0.211 4288294823
3.4489999 1.671 0.27500001 4288294823
3.454 1.677 0.33899999 4288294823
3.464 1.686 0.405 4288294823
3.4319999 1.633 0.093000002 4288294823
3.4330001 1.6339999 0.156 4288294823
3.4319999 1.635 0.219 4288294823
3.444 1.643 0.28299999 4288294823
3.448 1.648 0.347 4288294823
3.45 1.653 0.41100001 4288294823
3.421 1.602 0.101 4288294823
3.4260001 1.605 0.164 4288294823
3.434 1.61 0.227 4288294823
3.438 1.614 0.28999999 4288294823
3.438 1.617 0.354 4288294823
3.4419999 1.623 0.41800001 4288294823
3.4360001 1.5829999 0.11 4288294823
3.4230001 1.577 0.171 4288294823
3.4189999 1.577 0.233 4288294823
3.4170001 1.5779999 0.296 4288294823
3.424 1.585 0.36000001 4288294823
3.437 1.594 0.42500001 4288294823
3.47 1.572 0.118 4288294823
3.4619999 1.569 0.18099999 4288294823
3.4519999 1.566 0.243 4288294823
3.4460001 1.5650001 0.30599999 4288294823
3.4260001 1.559 0.36700001 4288294823
3.427 1.563 0.43000001 4288294823
3.6059999 1.6059999 0.13 4288294823
3.5020001 1.5599999 0.19 4288294823
3.4860001 1.554 0.252 4288294823
3.47 1.55 0.31400001 4288294823
3.464 1.55 0.377 4288294823
3.4530001 1.548 0.44 4288294823
3.5439999 1.552 0.199 4288294823
3.5220001 1.544 0.26100001 4288294823
3.5109999 1.541 0.32499999 4288294823
3.494 1.539 0.45100001 4288294823
3.6199999 1.557 0.145 4288294823
3.5699999 1.536 0.207 4288294823
3.5550001 1.53 0.27000001 4288294823
3.5539999 1.5319999 0.33399999 4288294823
3.5680001 1.541 0.40099999 4288294823
3.5280001 1.527 0.461 4288294823
3.6170001 1.528 0.15099999 4288294823
3.608 1.524 0.215 4288294823
3.6010001 1.522 0.27900001 4288294823
3.5940001 1.522 0.34400001 4288294823
3.576 1.517 0.40700001 4288294823
3.569 1.517 0.472 4288294823
3.6559999 1.516 0.15800001 4288294823
3.648 1.513 0.223 4288294823
3.641 1.511 0.28799999 4288294823
3.6370001 1.511 0.35299999 4288294823
3.6129999 1.5039999 0.41600001 4288294823
3.605 1.5039999 0.48199999 4288294823
3.698 1.505 0.16599999 4288294823
3.6889999 1.502 0.23100001 4288294823
3.677 1.498 0.296 4288294823
3.6559999 1.494 0.426 4288294823
3.6489999 1.494 0.49200001 4288294823
3.7360001 1.492 0.17200001 4288294823
3.73 1.49 0.23800001 4288294823
3.7219999 1.487 0.30399999 4288294823
3.7 1.483 0.43599999 4288294823
3.687 1.4809999 0.50099999 4288294823
3.78 1.48 0.17900001 4288294823
3.7709999 1.477 0.245 4288294823
3.7650001 1.476 0.31200001 4288294823
3.743 1.471 0.44400001 4288294823
3.73 1.469 0.51099998 4288294823
3.8280001 1.47 0.185 4288294823
3.816 1.465 0.252 4288294823
3.806 1.462 0.31900001 4288294823
3.783 1.4579999 0.45300001 4288294823
3.7720001 1.456 0.51999998 4288294823
3.8759999 1.459 0.192 4288294823
3.8640001 1.454 0.259 4288294823
3.8540001 1.451 0.32699999 4288294823
3.8329999 1.447 0.46200001 4288294823
3.825 1.446 0.52999997 4288294823
3.921 1.4450001 0.198 4288294823
3.908 1.4400001 0.26499999 4288294823
3.898 1.437 0.333 4288294823
3.8770001 1.433 0.47 4288294823
3.869 1.433 0.53799999 4288294823
3.961 1.4299999 0.20299999 4288294823
3.9560001 1.428 0.271 4288294823
3.9219999 1.42 0.477 4288294823
3.9100001 1.418 0.546 4288294823
4.0079999 1.4170001 0.208 4288294823
4.0050001 1.415 0.27700001 4288294823
3.984 1.41 0.41600001 4288294823
3.9719999 1.4069999 0.48500001 4288294823
3.9579999 1.405 0.55500001 4288294823
4.0619998 1.405 0.213 4288294823
4.0570002 1.403 0.28299999 4288294823
4.0240002 1.393 0.42199999 4288294823
4.0190001 1.392 0.493 4288294823
4.0110002 1.392 0.56300002 4288294823
4.1100001 1.39 0.21699999 4288294823
4.098 1.386 0.28799999 4288294823
4.092 1.385 0.43000001 4288294823
4.0679998 1.378 0.5 4288294823
4.0580001 1.377 0.57099998 4288294823
4.1560001 1.375 0.221 4288294823
4.191 1.385 0.368 4288294823
4.132 1.367 0.435 4288294823
4.118 1.363 0.50599998 4288294823
4.105 1.3609999 0.57800001 4288294823
4.2080002 1.36 0.22499999 4288294823
4.2030001 1.357 0.37 4288294823
4.1830001 1.351 0.44100001 4288294823
4.1739998 1.349 0.51300001 4288294823
4.2680001 1.382 0.60000002 4288294823
4.2670002 1.347 0.229 4288294823
4.2410002 1.337 0.373 4288294823
4.2389998 1.337 0.447 4288294823
4.2210002 1.332 0.51899999 4288294823
4.3119998 1.327 0.30500001 4288294823
4.2979999 1.322 0.37799999 4288294823
4.2839999 1.318 0.45100001 4288294823
4.2670002 1.314 0.52399999 4288294823
4.3590002 1.309 0.308 4288294823
4.3520002 1.306 0.382 4288294823
4.3369999 1.302 0.456 4288294823
4.3249998 1.298 0.52999997 4288294823
3.273 1.624 -0.37 4293379707
3.2739999 1.62 -0.30899999 4293379707
3.2449999 1.602 -0.245 4293379707
3.2360001 1.6289999 -0.35699999 4293379707
3.2309999 1.623 -0.296 4293379707
3.2019999 1.605 -0.233 4293379707
3.2049999 1.638 -0.345 4293379707
3.1930001 1.628 -0.28299999 4293379707
3.1900001 1.623 -0.223 4293379707
3.174 1.645 -0.33199999 4293379707
3.1630001 1.636 -0.271 4293379707
3.158 1.63 -0.212 4293379707
3.141 1.651 -0.31900001 4293379707
3.1459999 1.649 -0.25999999 4293379707
3.1140001 1.66 -0.30599999 4293379707
3.1059999 1.651 -0.24600001 4293379707
3.075 1.66 -0.292 4293379707
3.0639999 1.651 -0.233 4293379707
3.072 1.681 -0.28099999 4293379707
3.049 1.664 -0.221 4293379707
3.0420001 1.6849999 -0.26699999 4293379707
3.013 1.666 -0.207 4293379707
2.9979999 1.681 -0.252 4293379707
3 1.679 -0.19499999 4293379707
2.9990001 1.702 -0.241 4293379707
2.97 1.705 -0.227 4293379707
2.927 1.7 -0.211 4293379707
2.902 1.704 -0.197 4293379707
2.9300001 1.738 -0.186 4293379707
1.6619999 0.48500001 -0.88 4293379707
1.681 0.49599999 -0.88 4293379707
1.6950001 0.505 -0.87900001 4293379707
1.6289999 0.49700001 -0.87699997 4293379707
1.72 0.51700002 -0.88099998 4293379707
1.646 0.50599998 -0.87599999 4293379707
1.737 0.52700001 -0.88 4293379707
1.669 0.51800001 -0.87800002 4293379707
1.756 0.537 -0.87900001 4293379707
1.6059999 0.50999999 -0.87800002 4293379707
1.689 0.528 -0.87800002 4293379707
1.773 0.546 -0.87599999 4293379707
1.623 0.51800001 -0.875 4293379707
1.712 0.53799999 -0.87900001 4293379707
1.794 0.55599999 -0.87599999 4293379707
1.647 0.52899998 -0.87699997 4293379707
1.732 0.54799998 -0.87699997 4293379707
1.821 0.56699997 -0.87699997 4293379707
1.6670001 0.53799999 -0.87599999 4293379707
1.7539999 0.55800003 -0.87699997 4293379707
1.8430001 0.57800001 -0.87599999 4293379707
1.691 0.54900002 -0.87699997 4293379707
1.775 0.56699997 -0.875 4293379707
1.865 0.58700001 -0.87400001 4293379707
1.627 0.53899997 -0.87400001 4293379707
1.717 0.55900002 -0.87699997 4293379707
1.795 0.57599998 -0.87199998 4293379707
1.893 0.59899998 -0.87400001 4293379707
1.649 0.54799998 -0.87400001 4293379707
1.738 0.56800002 -0.87599999 4293379707
1.8279999 0.58899999 -0.87599999 4293379707
1.9220001 0.61000001 -0.875 4293379707
1.677 0.55900002 -0.875 4293379707
1.765 0.579 -0.87699997 4293379707
1.85 0.59799999 -0.87300003 4293379707
1.95 0.62099999 -0.87400001 4293379707
1.702 0.56800002 -0.875 4293379707
1.791 0.58899999 -0.87599999 4293379707
1.88 0.60900003 -0.87400001 4293379707
1.978 0.63200003 -0.87300003 4293379707
1.73 0.57800001 -0.87599999 4293379707
1.818 0.59899998 -0.87599999 4293379707
1.906 0.61900002 -0.87199998 4293379707
2.0139999 0.64499998 -0.875 4293379707
1.665 0.56699997 -0.87300003 4293379707
1.756 0.588 -0.87599999 4293379707
1.8430001 0.60799998 -0.87400001 4293379707
1.937 0.63 -0.87199998 4293379707
2.0439999 0.65600002 -0.87300003 4293379707
1.6 0.55400002 -0.86799997 4293379707
1.694 0.57700002 -0.87400001 4293379707
1.784 0.59799999 -0.87599999 4293379707
1.877 0.62 -0.87599999 4293379707
1.97 0.64099997 -0.87300003 4293379707
2.082 0.66900003 -0.875 4293379707
1.631 0.565 -0.87099999 4293379707
1.722 0.58600003 -0.87400001 4293379707
1.809 0.60600001 -0.87300003 4293379707
1.904 0.62900001 -0.87400001 4293379707
2.0039999 0.65200001 -0.87300003 4293379707
2.115 0.68000001 -0.87400001 4293379707
1.659 0.574 -0.87099999 4293379707
1.75 0.59500003 -0.87400001 4293379707
1.841 0.61699998 -0.87400001 4293379707
1.9349999 0.639 -0.87300003 4293379707
2.0409999 0.66399997 -0.87400001 4293379707
2.154 0.69300002 -0.875 4293379707
1.684 0.58200002 -0.87 4293379707
1.783 0.60600001 -0.87599999 4293379707
1.872 0.62699997 -0.87400001 4293379707
1.969 0.64899999 -0.87300003 4293379707
2.073 0.67500001 -0.87199998 4293379707
2.1919999 0.704 -0.87400001 4293379707
1.717 0.59200001 -0.87199998 4293379707
1.804 0.61199999 -0.87099999 4293379707
1.9 0.63499999 -0.87199998 4293379707
2.003 0.66000003 -0.87300003 4293379707
2.115 0.68800002 -0.87400001 4293379707
2.2360001 0.71799999 -0.87599999 4293379707
1.743 0.59899998 -0.87 4293379707
1.841 0.62300003 -0.87400001 4293379707
1.9349999 0.64600003 -0.87300003 4293379707
2.0409999 0.671 -0.87400001 4293379707
2.152 0.699 -0.87300003 4293379707
2.277 0.73000002 -0.875 4293379707
1.777 0.60900003 -0.87199998 4293379707
1.869 0.63099998 -0.87199998 4293379707
1.9680001 0.65499997 -0.87199998 4293379707
2.0710001 0.68000001 -0.87099999 4293379707
2.1930001 0.71100003 -0.87400001 4293379707
2.3269999 0.745 -0.87800002 4293379707
1.806 0.61799997 -0.87099999 4293379707
1.898 0.639 -0.87 4293379707
2.006 0.66600001 -0.87300003 4293379707
2.1199999 0.69400001 -0.875 4293379707
2.2360001 0.72299999 -0.87400001 4293379707
2.372 0.75800002 -0.87699997 4293379707
1.837 0.62599999 -0.87 4293379707
1.938 0.64999998 -0.87199998 4293379707
2.0450001 0.67699999 -0.87400001 4293379707
2.1589999 0.70499998 -0.875 4293379707
2.2839999 0.73699999 -0.87599999 4293379707
2.428 0.77399999 -0.88099998 4293379707
1.869 0.634 -0.86900002 4293379707
1.977 0.66100001 -0.87400001 4293379707
2.082 0.68599999 -0.87300003 4293379707
2.2019999 0.71600002 -0.875 4293379707
2.332 0.75 -0.87699997 4293379707
2.474 0.78600001 -0.87900001 4293379707
1.914 0.64600003 -0.87400001 4293379707
2.0109999 0.66900003 -0.87199998 4293379707
2.128 0.69800001 -0.875 4293379707
2.247 0.72799999 -0.87599999 4293379707
2.3800001 0.76200002 -0.87699997 4293379707
2.526 0.80000001 -0.88 4293379707
1.938 0.65100002 -0.86900002 4293379707
2.0420001 0.676 -0.86900002 4293379707
2.1670001 0.708 -0.875 4293379707
2.293 0.74000001 -0.87599999 4293379707
2.434 0.77600002 -0.87900001 4293379707
2.579 0.81300002 -0.87900001 4293379707
1.98 0.662 -0.87099999 4293379707
2.095 0.69 -0.87400001 4293379707
2.2119999 0.71899998 -0.875 4293379707
2.349 0.75400001 -0.87900001 4293379707
2.487 0.78899997 -0.88 4293379707
2.6440001 0.82999998 -0.88200003 4293379707
2.02 0.671 -0.87199998 4293379707
2.128 0.69700003 -0.87099999 4293379707
2.2590001 0.73000002 -0.87599999 4293379707
2.4000001 0.76700002 -0.88 4293379707
2.5420001 0.80299997 -0.88 4293379707
2.7079999 0.84600002 -0.88300002 4293379707
2.062 0.68000001 -0.87300003 4293379707
2.1830001 0.71100003 -0.87599999 4293379707
2.313 0.74299997 -0.87800002 4293379707
2.454 0.77899998 -0.88099998 4293379707
2.6040001 0.81800002 -0.88200003 4293379707
2.77 0.861 -0.884 4293379707
2.105 0.69 -0.87300003 4293379707
2.2260001 0.72000003 -0.875 4293379707
2.3610001 0.75400001 -0.87800002 4293379707
2.5079999 0.792 -0.88099998 4293379707
2.668 0.833 -0.884 4293379707
2.842 0.87800002 -0.88599998 4293379707
2.1489999 0.699 -0.87300003 4293379707
2.2739999 0.73000002 -0.87599999 4293379707
2.418 0.76700002 -0.88099998 4293379707
2.5710001 0.80599999 -0.884 4293379707
2.7290001 0.847 -0.884 4293379707
2.9089999 0.89300001 -0.88599998 4293379707
2.198 0.70999998 -0.87599999 4293379707
2.329 0.74199998 -0.87800002 4293379707
2.47 0.778 -0.88099998 4293379707
2.6289999 0.81900001 -0.884 4293379707
2.796 0.861 -0.88499999 4293379707
2.9860001 0.91100001 -0.88800001 4293379707
2.24 0.71700001 -0.87400001 4293379707
2.381 0.75300002 -0.87900001 4293379707
2.5309999 0.79100001 -0.88300002 4293379707
2.6949999 0.833 -0.88700002 4293379707
2.869 0.87800002 -0.88800001 4293379707
3.0669999 0.92900002 -0.88999999 4293379707
2.2969999 0.72899997 -0.87800002 4293379707
2.4389999 0.76499999 -0.88200003 4293379707
2.5910001 0.80299997 -0.884 4293379707
2.753 0.84399998 -0.88499999 4293379707
2.9400001 0.89200002 -0.88800001 4293379707
3.1489999 0.94700003 -0.89200002 4293379707
2.349 0.73900002 -0.87900001 4293379707
2.494 0.77499998 -0.88200003 4293379707
2.6570001 0.81699997 -0.88700002 4293379707
2.829 0.86000001 -0.889 4293379707
3.0220001 0.91000003 -0.89099997 4293379707
3.233 0.96399999 -0.89300001 4293379707
2.405 0.74900001 -0.88099998 4293379707
2.553 0.78600001 -0.88300002 4293379707
2.723 0.82999998 -0.88800001 4293379707
2.8970001 0.87300003 -0.889 4293379707
3.102 0.926 -0.89300001 4293379707
3.3380001 0.98699999 -0.898 4293379707
2.4619999 0.75999999 -0.88300002 4293379707
2.6199999 0.79900002 -0.88700002 4293379707
2.786 0.83999997 -0.88800001 4293379707
2.9790001 0.88999999 -0.89200002 4293379707
3.1889999 0.94300002 -0.89499998 4293379707
3.428 1.005 -0.898 4293379707
2.517 0.76899999 -0.88300002 4293379707
2.6800001 0.80900002 -0.88700002 4293379707
2.859 0.85399997 -0.88999999 4293379707
3.056 0.90399998 -0.89300001 4293379707
3.2820001 0.96100003 -0.89700001 4293379707
3.5320001 1.025 -0.90100002 4293379707
2.5810001 0.77999997 -0.88599998 4293379707
2.753 0.82300001 -0.88999999 4293379707
2.9319999 0.86699998 -0.89200002 4293379707
3.145 0.921 -0.89700001 4293379707
3.3759999 0.97899997 -0.89999998 4293379707
2.641 0.78899997 -0.88599998 4293379707
2.823 0.83399999 -0.89200002 4293379707
3.0150001 0.88200003 -0.89499998 4293379707
3.2290001 0.935 -0.89700001 4293379707
3.473 0.99699998 -0.90100002 4293379707
2.7130001 0.801 -0.88999999 4293379707
2.8970001 0.84600002 -0.89399999 4293379707
3.0969999 0.89600003 -0.89700001 4293379707
3.3239999 0.95200002 -0.89999998 4293379707
3.5769999 1.015 -0.903 4293379707
2.7780001 0.81 -0.88999999 4293379707
2.9679999 0.85699999 -0.89399999 4293379707
3.1819999 0.91000003 -0.89899999 4293379707
3.4170001 0.96700001 -0.90200001 4293379707
2.8499999 0.82099998 -0.89300001 4293379707
3.0480001 0.86900002 -0.89700001 4293379707
3.2679999 0.92299998 -0.89999998 4293379707
3.5190001 0.98400003 -0.90499997 4293379707
2.9319999 0.83399999 -0.89700001 4293379707
3.1340001 0.88200003 -0.89999998 4293379707
3.362 0.93800002 -0.903 4293379707
3.0009999 0.84200001 -0.89700001 4293379707
3.2190001 0.89399999 -0.90100002 4293379707
3.4630001 0.95300001 -0.90600002 4293379707
3.0840001 0.85299999 -0.89999998 4293379707
3.313 0.90799999 -0.90499997 4293379707
3.5769999 0.97100002 -0.91100001 4293379707
3.1670001 0.86400002 -0.90100002 4293379707
3.414 0.92199999 -0.90899998 4293379707
3.2609999 0.87599999 -0.90499997 4293379707
3.51 0.93400002 -0.91000003 4293379707
3.349 0.88599998 -0.90700001 4293379707
3.6129999 0.94700003 -0.91299999 4293379707
3.4489999 0.898 -0.91100001 4293379707
3.5550001 0.91000003 -0.91500002 4293379707
3.6630001 0.92199999 -0.91799998 4293379707
1.7819999 0.76499999 -0.85699999 4293379707
1.701 0.74599999 -0.85600001 4293379707
1.793 0.77700001 -0.85500002 4293379707
1.7130001 0.75800002 -0.85399997 4293379707
1.802 0.78799999 -0.852 4293379707
1.727 0.76999998 -0.85299999 4293379707
1.819 0.80199999 -0.852 4293379707
1.658 0.75599998 -0.85600001 4293379707
1.7410001 0.78299999 -0.852 4293379707
1.834 0.815 -0.85100001 4293379707
1.6720001 0.76800001 -0.85500002 4293379707
1.766 0.80000001 -0.85600001 4293379707
1.855 0.83099997 -0.852 4293379707
1.6849999 0.77899998 -0.85299999 4293379707
1.777 0.81099999 -0.852 4293379707
1.869 0.84299999 -0.84899998 4293379707
1.707 0.79400003 -0.85399997 4293379707
1.793 0.82300001 -0.85000002 4293379707
1.8890001 0.85699999 -0.84899998 4293379707
1.722 0.80599999 -0.852 4293379707
1.812 0.83700001 -0.85000002 4293379707
1.906 0.87 -0.847 4293379707
1.744 0.82099998 -0.85299999 4293379707
1.834 0.852 -0.85000002 4293379707
1.934 0.88800001 -0.84899998 4293379707
1.675 0.80299997 -0.85399997 4293379707
1.762 0.833 -0.852 4293379707
1.855 0.866 -0.84899998 4293379707
1.962 0.90499997 -0.85000002 4293379707
1.6950001 0.81699997 -0.85399997 4293379707
1.781 0.84600002 -0.85000002 4293379707
1.877 0.88 -0.84799999 4293379707
1.98 0.91799998 -0.847 4293379707
1.71 0.82700002 -0.85000002 4293379707
1.807 0.86199999 -0.85100001 4293379707
1.896 0.89300001 -0.84500003 4293379707
2.0150001 0.93800002 -0.85000002 4293379707
1.733 0.84100002 -0.85000002 4293379707
1.826 0.87400001 -0.84799999 4293379707
1.926 0.91000003 -0.847 4293379707
2.036 0.95099998 -0.84600002 4293379707
1.576 0.79000002 -0.84799999 4293379707
1.663 0.82099998 -0.84799999 4293379707
1.756 0.85399997 -0.84899998 4293379707
1.852 0.889 -0.84799999 4293379707
1.95 0.92400002 -0.84500003 4293379707
2.066 0.96799999 -0.84600002 4293379707
1.601 0.80400002 -0.85000002 4293379707
1.692 0.83700001 -0.85100001 4293379707
1.781 0.86799997 -0.84899998 4293379707
1.877 0.903 -0.84799999 4293379707
1.98 0.94099998 -0.84600002 4293379707
2.096 0.98500001 -0.84600002 4293379707
1.624 0.81699997 -0.85000002 4293379707
1.712 0.84799999 -0.84899998 4293379707
1.801 0.87900001 -0.84600002 4293379707
1.897 0.91399997 -0.84399998 4293379707
2.0139999 0.95899999 -0.847 4293379707
2.132 1.0039999 -0.847 4293379707
1.642 0.82700002 -0.847 4293379707
1.733 0.85900003 -0.847 4293379707
1.83 0.89499998 -0.847 4293379707
1.936 0.935 -0.84799999 4293379707
2.0450001 0.97600001 -0.847 4293379707
2.168 1.023 -0.84799999 4293379707
1.669 0.84100002 -0.84799999 4293379707
1.757 0.87199998 -0.84600002 4293379707
1.855 0.90799999 -0.84500003 4293379707
1.967 0.94999999 -0.84799999 4293379707
2.075 0.991 -0.84600002 4293379707
2.2030001 1.041 -0.847 4293379707
1.7 0.85600001 -0.85000002 4293379707
1.785 0.88599998 -0.84600002 4293379707
1.887 0.92400002 -0.847 4293379707
2.0009999 0.96799999 -0.84899998 4293379707
2.109 1.008 -0.84500003 4293379707
2.244 1.061 -0.84899998 4293379707
1.726 0.86900002 -0.84899998 4293379707
1.816 0.90100002 -0.847 4293379707
1.9170001 0.93900001 -0.84600002 4293379707
2.029 0.98100001 -0.847 4293379707
2.1489999 1.028 -0.847 4293379707
2.2850001 1.082 -0.84899998 4293379707
1.747 0.87800002 -0.84600002 4293379707
1.846 0.91600001 -0.847 4293379707
1.949 0.954 -0.84600002 4293379707
2.0650001 0.99800003 -0.847 4293379707
2.1849999 1.045 -0.84600002 4293379707
2.3239999 1.1 -0.84799999 4293379707
1.776 0.89200002 -0.84600002 4293379707
1.876 0.92900002 -0.84600002 4293379707
1.982 0.96899998 -0.84500003 4293379707
2.098 1.0140001 -0.84600002 4293379707
2.23 1.066 -0.84799999 4293379707
2.3699999 1.1210001 -0.84899998 4293379707
1.8099999 0.90700001 -0.84799999 4293379707
1.91 0.94400001 -0.84600002 4293379707
2.0209999 0.98699999 -0.847 4293379707
2.1400001 1.033 -0.847 4293379707
2.267 1.082 -0.847 4293379707
2.4089999 1.1390001 -0.847 4293379707
1.836 0.91799998 -0.84500003 4293379707
1.933 0.954 -0.84200001 4293379707
2.052 1 -0.84500003 4293379707
2.1789999 1.05 -0.847 4293379707
2.3150001 1.104 -0.84799999 4293379707
2.4619999 1.163 -0.84899998 4293379707
1.87 0.93300003 -0.84500003 4293379707
1.978 0.97299999 -0.84600002 4293379707
2.0899999 1.016 -0.84500003 4293379707
2.22 1.068 -0.847 4293379707
2.3599999 1.123 -0.84799999 4293379707
2.513 1.1849999 -0.84899998 4293379707
1.898 0.94400001 -0.84299999 4293379707
2.0120001 0.98699999 -0.84500003 4293379707
2.1329999 1.035 -0.84600002 4293379707
2.2620001 1.085 -0.84600002 4293379707
2.404 1.142 -0.847 4293379707
2.563 1.206 -0.84799999 4293379707
1.933 0.958 -0.84299999 4293379707
2.0539999 1.005 -0.847 4293379707
2.174 1.051 -0.84600002 4293379707
2.312 1.1059999 -0.84799999 4293379707
2.4560001 1.163 -0.84799999 4293379707
2.6229999 1.2309999 -0.85000002 4293379707
1.9680001 0.97100002 -0.84200001 4293379707
2.092 1.0190001 -0.84600002 4293379707
2.22 1.069 -0.847 4293379707
2.3629999 1.127 -0.85000002 4293379707
2.5120001 1.186 -0.84899998 4293379707
2.677 1.253 -0.84899998 4293379707
2.0139999 0.98900002 -0.84500003 4293379707
2.1270001 1.0319999 -0.84299999 4293379707
2.266 1.087 -0.84799999 4293379707
2.4059999 1.143 -0.847 4293379707
2.569 1.209 -0.85000002 4293379707
2.7420001 1.279 -0.85100001 4293379707
2.052 1.003 -0.84500003 4293379707
2.177 1.052 -0.84600002 4293379707
2.3139999 1.1059999 -0.84799999 4293379707
2.4590001 1.163 -0.84799999 4293379707
2.622 1.229 -0.84899998 4293379707
2.8010001 1.302 -0.85000002 4293379707
2.0910001 1.017 -0.84399998 4293379707
2.2219999 1.068 -0.847 4293379707
2.3659999 1.125 -0.85000002 4293379707
2.5150001 1.1849999 -0.84899998 4293379707
2.684 1.252 -0.85000002 4293379707
2.875 1.33 -0.852 4293379707
2.135 1.0319999 -0.84500003 4293379707
2.2739999 1.087 -0.84899998 4293379707
2.4170001 1.143 -0.85000002 4293379707
2.5799999 1.209 -0.852 4293379707
2.7460001 1.276 -0.85100001 4293379707
2.9449999 1.357 -0.85299999 4293379707
2.181 1.048 -0.84600002 4293379707
2.322 1.104 -0.84899998 4293379707
2.4760001 1.165 -0.852 4293379707
2.6329999 1.227 -0.85100001 4293379707
2.8099999 1.299 -0.85000002 4293379707
3.0220001 1.385 -0.85399997 4293379707
2.23 1.0650001 -0.847 4293379707
2.3729999 1.1210001 -0.84899998 4293379707
2.5309999 1.184 -0.852 4293379707
2.6989999 1.251 -0.852 4293379707
2.8859999 1.326 -0.85299999 4293379707
2.283 1.0829999 -0.84899998 4293379707
2.4289999 1.14 -0.85100001 4293379707
2.586 1.202 -0.85100001 4293379707
2.7620001 1.273 -0.852 4293379707
2.9619999 1.354 -0.85500002 4293379707
3.178 1.441 -0.85399997 4293379707
2.3340001 1.1 -0.85000002 4293379707
2.483 1.158 -0.85100001 4293379707
2.6459999 1.222 -0.852 4293379707
2.832 1.2970001 -0.85399997 4293379707
3.0350001 1.3789999 -0.85399997 4293379707
3.256 1.4680001 -0.85299999 4293379707
2.3900001 1.118 -0.852 4293379707
2.54 1.176 -0.852 4293379707
2.7119999 1.244 -0.85299999 4293379707
2.904 1.3200001 -0.85500002 4293379707
2.4430001 1.133 -0.852 4293379707
2.605 1.197 -0.85399997 4293379707
2.783 1.267 -0.85500002 4293379707
2.9790001 1.345 -0.85600001 4293379707
3.1919999 1.4299999 -0.85399997 4293379707
2.4990001 1.15 -0.85299999 4293379707
2.664 1.215 -0.85399997 4293379707
2.852 1.289 -0.85600001 4293379707
3.0610001 1.372 -0.85799998 4293379707
3.28 1.459 -0.85500002 4293379707
2.5599999 1.168 -0.85399997 4293379707
2.7290001 1.234 -0.85500002 4293379707
2.925 1.311 -0.85699999 4293379707
2.619 1.1849999 -0.85500002 4293379707
2.8039999 1.257 -0.85799998 4293379707
3.0090001 1.337 -0.86000001 4293379707
3.224 1.4220001 -0.85900003 4293379707
2.6819999 1.202 -0.85500002 4293379707
2.872 1.275 -0.85799998 4293379707
3.0869999 1.36 -0.861 4293379707
3.3099999 1.447 -0.85900003 4293379707
2.753 1.222 -0.85699999 4293379707
2.95 1.298 -0.86000001 4293379707
2.8199999 1.239 -0.85799998 4293379707
3.026 1.319 -0.861 4293379707
3.25 1.405 -0.86199999 4293379707
2.8889999 1.257 -0.85900003 4293379707
3.1110001 1.342 -0.86400002 4293379707
3.3369999 1.429 -0.86199999 4293379707
2.97 1.278 -0.86199999 4293379707
3.0510001 1.299 -0.86400002 4293379707
3.2809999 1.386 -0.866 4293379707
3.141 1.322 -0.86799997 4293379707
3.3699999 1.4069999 -0.86699998 4293379707
3.3069999 1.359 -0.86900002 4293379707
3.398 1.3789999 -0.87099999 4293379707
2.51 0.40599999 -0.91299999 4293379707
2.4660001 0.41299999 -0.91100001 4293379707
2.4189999 0.419 -0.90799999 4293379707
2.3759999 0.426 -0.90499997 4293379707
2.5280001 0.45500001 -0.912 4293379707
2.3340001 0.433 -0.90200001 4293379707
2.484 0.461 -0.90899998 4293379707
2.6359999 0.491 -0.912 4293379707
2.3010001 0.44100001 -0.90200001 4293379707
2.441 0.46799999 -0.90600002 4293379707
2.595 0.49900001 -0.91100001 4293379707
2.263 0.447 -0.89999998 4293379707
2.3989999 0.47499999 -0.90399998 4293379707
2.5539999 0.50599998 -0.91000003 4293379707
2.23 0.45500001 -0.89899999 4293379707
2.359 0.48100001 -0.90100002 4293379707
2.5109999 0.51300001 -0.90700001 4293379707
2.194 0.461 -0.89600003 4293379707
2.325 0.48899999 -0.89999998 4293379707
2.467 0.51899999 -0.903 4293379707
2.905 0.61400002 -0.889 4293379707
2.1589999 0.46799999 -0.89300001 4293379707
2.2920001 0.49700001 -0.898 4293379707
2.427 0.52600002 -0.89999998 4293379707
2.572 0.55800003 -0.90100002 4293379707
2.9219999 0.63499999 -0.90799999 4293379707
2.1229999 0.47400001 -0.889 4293379707
2.2539999 0.50300002 -0.89499998 4293379707
2.392 0.53399998 -0.89899999 4293379707
2.5350001 0.56599998 -0.89999998 4293379707
2.7030001 0.60299999 -0.90399998 4293379707
2.8840001 0.64499998 -0.90799999 4293379707
2.098 0.48300001 -0.889 4293379707
2.223 0.51099998 -0.89300001 4293379707
2.3529999 0.54000002 -0.89499998 4293379707
2.5050001 0.57499999 -0.89999998 4293379707
2.665 0.61199999 -0.903 4293379707
2.835 0.65100002 -0.90399998 4293379707
2.072 0.491 -0.889 4293379707
2.2 0.51999998 -0.89499998 4293379707
2.322 0.54799998 -0.89399999 4293379707
2.4660001 0.58200002 -0.89700001 4293379707
2.6259999 0.61900002 -0.90100002 4293379707
2.786 0.65700001 -0.89999998 4293379707
2.043 0.498 -0.88599998 4293379707
2.1670001 0.52700001 -0.89099997 4293379707
2.2880001 0.55500001 -0.89099997 4293379707
2.4319999 0.58999997 -0.89499998 4293379707
2.579 0.625 -0.89600003 4293379707
2.75 0.667 -0.89999998 4293379707
2.016 0.505 -0.884 4293379707
2.138 0.53399998 -0.889 4293379707
2.2609999 0.56400001 -0.88999999 4293379707
2.4000001 0.59799999 -0.89399999 4293379707
2.5450001 0.63300002 -0.89399999 4293379707
2.7079999 0.67400002 -0.89600003 4293379707
1.992 0.51300001 -0.88300002 4293379707
2.108 0.54100001 -0.88599998 4293379707
2.23 0.57099998 -0.88800001 4293379707
2.368 0.60500002 -0.89099997 4293379707
2.5139999 0.64200002 -0.89300001 4293379707
2.6760001 0.68300003 -0.89600003 4293379707
1.967 0.52100003 -0.88099998 4293379707
2.076 0.54799998 -0.88200003 4293379707
2.201 0.579 -0.88599998 4293379707
2.3369999 0.61299998 -0.889 4293379707
2.4860001 0.65200001 -0.89300001 4293379707
2.6429999 0.69199997 -0.89499998 4293379707
1.951 0.52999997 -0.88300002 4293379707
2.0599999 0.55800003 -0.884 4293379707
2.1830001 0.58899999 -0.88700002 4293379707
2.306 0.62099999 -0.88599998 4293379707
2.4489999 0.65799999 -0.889 4293379707
2.605 0.699 -0.89099997 4293379707
1.928 0.53799999 -0.88 4293379707
2.036 0.56599998 -0.88200003 4293379707
2.154 0.597 -0.884 4293379707
2.28 0.63 -0.88499999 4293379707
2.4189999 0.667 -0.88700002 4293379707
2.5699999 0.70700002 -0.88800001 4293379707
1.908 0.54699999 -0.88 4293379707
2.013 0.574 -0.88 4293379707
2.128 0.60500002 -0.88099998 4293379707
2.2520001 0.63800001 -0.88200003 4293379707
2.3870001 0.67400002 -0.88300002 4293379707
2.5480001 0.71799999 -0.889 4293379707
1.885 0.55400002 -0.87699997 4293379707
1.99 0.58200002 -0.87800002 4293379707
2.1070001 0.61400002 -0.88 4293379707
2.233 0.648 -0.88300002 4293379707
2.3640001 0.68400002 -0.88300002 4293379707
2.5120001 0.72500002 -0.88499999 4293379707
1.868 0.56300002 -0.87599999 4293379707
1.972 0.59100002 -0.87699997 4293379707
2.085 0.62199998 -0.87900001 4293379707
2.2030001 0.65499997 -0.87900001 4293379707
2.3369999 0.69199997 -0.88 4293379707
2.4879999 0.73500001 -0.884 4293379707
1.848 0.57099998 -0.87400001 4293379707
1.952 0.60000002 -0.87599999 4293379707
2.0610001 0.63 -0.87599999 4293379707
2.1819999 0.66399997 -0.87800002 4293379707
2.3150001 0.70200002 -0.88 4293379707
2.4619999 0.745 -0.88200003 4293379707
1.831 0.57999998 -0.87300003 4293379707
1.933 0.60799998 -0.87400001 4293379707
2.0380001 0.63800001 -0.87300003 4293379707
2.161 0.67299998 -0.87599999 4293379707
2.2950001 0.713 -0.87900001 4293379707
2.4349999 0.75300002 -0.88 4293379707
1.913 0.616 -0.87099999 4293379707
2.023 0.648 -0.87300003 4293379707
2.141 0.68300003 -0.87400001 4293379707
2.2679999 0.72000003 -0.875 4293379707
2.4170001 0.76499999 -0.88 4293379707
1.896 0.625 -0.87 4293379707
2.0090001 0.65899998 -0.87300003 4293379707
2.122 0.69199997 -0.87300003 4293379707
2.2520001 0.73100001 -0.875 4293379707
2.392 0.773 -0.87699997 4293379707
1.886 0.63599998 -0.87099999 4293379707
1.993 0.66900003 -0.87199998 4293379707
2.108 0.70300001 -0.87300003 4293379707
2.233 0.741 -0.87300003 4293379707
2.3729999 0.78399998 -0.87599999 4293379707
1.863 0.64300001 -0.866 4293379707
1.974 0.67699999 -0.86900002 4293379707
2.0899999 0.71200001 -0.87099999 4293379707
2.211 0.75 -0.87099999 4293379707
2.352 0.79400003 -0.87300003 4293379707
1.849 0.653 -0.86500001 4293379707
1.96 0.68699998 -0.86799997 4293379707
2.0769999 0.72399998 -0.87 4293379707
2.1930001 0.75999999 -0.86900002 4293379707
2.336 0.80500001 -0.87300003 4293379707
1.9450001 0.69599998 -0.866 4293379707
2.0610001 0.73299998 -0.86799997 4293379707
2.175 0.76899999 -0.866 4293379707
2.3169999 0.81599998 -0.87099999 4293379707
1.933 0.70700002 -0.866 4293379707
2.046 0.74299997 -0.86699998 4293379707
2.161 0.77999997 -0.86500001 4293379707
2.2969999 0.82499999 -0.86699998 4293379707
1.9170001 0.71499997 -0.86199999 4293379707
2.0350001 0.75400001 -0.866 4293379707
2.148 0.79100001 -0.86400002 4293379707
2.283 0.83700001 -0.866 4293379707
1.909 0.727 -0.86199999 4293379707
2.0209999 0.764 -0.86400002 4293379707
2.138 0.80299997 -0.86299998 4293379707
2.2739999 0.84899998 -0.866 4293379707
1.898 0.73799998 -0.861 4293379707
2.0120001 0.77600002 -0.86299998 4293379707
2.1270001 0.815 -0.86199999 4293379707
2.2550001 0.85900003 -0.86199999 4293379707
1.892 0.74900001 -0.861 4293379707
2.0009999 0.787 -0.861 4293379707
2.115 0.82599998 -0.86000001 4293379707
2.2509999 0.87300003 -0.86400002 4293379707
1.882 0.75999999 -0.85900003 4293379707
1.989 0.79699999 -0.85900003 4293379707
2.1059999 0.83700001 -0.85900003 4293379707
2.237 0.884 -0.86000001 4293379707
1.875 0.77200001 -0.85900003 4293379707
1.983 0.80900002 -0.85799998 4293379707
2.095 0.84799999 -0.85699999 4293379707
2.2279999 0.89600003 -0.85900003 4293379707
1.863 0.78100002 -0.85500002 4293379707
1.971 0.81900001 -0.85500002 4293379707
2.0899999 0.861 -0.85600001 4293379707
2.221 0.91000003 -0.85799998 4293379707
1.857 0.792 -0.85399997 4293379707
1.969 0.83200002 -0.85600001 4293379707
2.0840001 0.87400001 -0.85500002 4293379707
2.214 0.92199999 -0.85699999 4293379707
1.962 0.84399998 -0.85399997 4293379707
2.0769999 0.88599998 -0.85299999 4293379707
2.2079999 0.93599999 -0.85500002 4293379707
1.848 0.81599998 -0.852 4293379707
1.9579999 0.85699999 -0.85299999 4293379707
2.073 0.89999998 -0.852 4293379707
2.204 0.949 -0.85399997 4293379707
1.9529999 0.86900002 -0.85100001 4293379707
2.0680001 0.912 -0.85100001 4293379707
2.198 0.96200001 -0.852 4293379707
1.951 0.88200003 -0.85000002 4293379707
2.066 0.926 -0.85000002 4293379707
2.197 0.977 -0.852 4293379707
1.9529999 0.89700001 -0.85100001 4293379707
2.066 0.94099998 -0.84899998 4293379707
2.194 0.991 -0.85000002 4293379707
1.949 0.90899998 -0.84799999 4293379707
2.066 0.95499998 -0.84799999 4293379707
2.1989999 1.0089999 -0.85000002 4293379707
1.951 0.92400002 -0.84799999 4293379707
2.0650001 0.96899998 -0.84600002 4293379707
2.1989999 1.024 -0.84899998 4293379707
1.842 0.89399999 -0.84600002 4293379707
1.951 0.93699998 -0.84600002 4293379707
2.0699999 0.98500001 -0.847 4293379707
2.201 1.039 -0.847 4293379707
1.842 0.90700001 -0.84399998 4293379707
1.954 0.95200002 -0.84500003 4293379707
2.0710001 1 -0.84500003 4293379707
2.2019999 1.054 -0.84500003 4293379707
1.848 0.92199999 -0.84399998 4293379707
1.955 0.96600002 -0.84299999 4293379707
2.075 1.015 -0.84399998 4293379707
2.207 1.071 -0.84399998 4293379707
1.85 0.93599999 -0.84299999 4293379707
1.959 0.98100001 -0.84200001 4293379707
2.0739999 1.029 -0.83999997 4293379707
2.2130001 1.0880001 -0.84299999 4293379707
1.857 0.95200002 -0.84299999 4293379707
1.9630001 0.99599999 -0.84100002 4293379707
2.0869999 1.049 -0.84200001 4293379707
2.223 1.107 -0.84399998 4293379707
1.86 0.96600002 -0.84100002 4293379707
1.976 1.015 -0.84200001 4293379707
2.089 1.063 -0.83899999 4293379707
2.2279999 1.123 -0.84100002 4293379707
1.867 0.98100001 -0.83999997 4293379707
1.984 1.031 -0.84200001 4293379707
2.098 1.08 -0.838 4293379707
2.2390001 1.142 -0.84100002 4293379707
1.877 0.99800003 -0.83999997 4293379707
1.988 1.045 -0.83899999 4293379707
2.112 1.1 -0.83899999 4293379707
2.2449999 1.159 -0.838 4293379707
1.886 1.0140001 -0.83899999 4293379707
1.999 1.063 -0.838 4293379707
2.122 1.118 -0.83700001 4293379707
2.266 1.183 -0.83999997 4293379707
1.8890001 1.027 -0.83499998 4293379707
2.0109999 1.081 -0.838 4293379707
2.1340001 1.136 -0.83600003 4293379707
2.277 1.202 -0.838 4293379707
1.7970001 0.99900001 -0.83700001 4293379707
1.904 1.046 -0.83600003 4293379707
2.0179999 1.097 -0.83499998 4293379707
2.1489999 1.156 -0.83600003 4293379707
2.2909999 1.222 -0.83700001 4293379707
1.804 1.013 -0.83399999 4293379707
1.913 1.061 -0.83399999 4293379707
2.03 1.114 -0.833 4293379707
2.165 1.177 -0.83600003 4293379707
2.309 1.244 -0.83700001 4293379707
1.819 1.031 -0.83399999 4293379707
1.926 1.079 -0.833 4293379707
2.05 1.136 -0.83499998 4293379707
2.178 1.1950001 -0.833 4293379707
2.325 1.2640001 -0.83499998 4293379707
1.831 1.048 -0.833 4293379707
1.9450001 1.1 -0.83399999 4293379707
2.0680001 1.156 -0.83499998 4293379707
2.198 1.217 -0.83399999 4293379707
2.342 1.285 -0.833 4293379707
1.742 1.0190001 -0.833 4293379707
1.848 1.066 -0.833 4293379707
1.954 1.114 -0.83099997 4293379707
2.0810001 1.174 -0.83200002 4293379707
2.2179999 1.238 -0.833 4293379707
2.369 1.311 -0.83399999 4293379707
1.756 1.035 -0.83200002 4293379707
1.863 1.084 -0.833 4293379707
1.978 1.137 -0.83200002 4293379707
2.102 1.1950001 -0.83200002 4293379707
2.2409999 1.262 -0.833 4293379707
2.3859999 1.332 -0.83099997 4293379707
1.7690001 1.051 -0.83099997 4293379707
1.87 1.096 -0.82800001 4293379707
1.99 1.153 -0.829 4293379707
2.1240001 1.217 -0.83200002 4293379707
2.263 1.284 -0.83200002 4293379707
2.414 1.357 -0.83099997 4293379707
1.788 1.069 -0.83099997 4293379707
1.893 1.118 -0.829 4293379707
2.01 1.173 -0.829 4293379707
2.145 1.238 -0.83099997 4293379707
2.2839999 1.3049999 -0.82999998 4293379707
2.4419999 1.3839999 -0.83099997 4293379707
1.804 1.086 -0.829 4293379707
1.916 1.1390001 -0.82999998 4293379707
2.033 1.194 -0.829 4293379707
2.165 1.258 -0.829 4293379707
2.3050001 1.327 -0.82800001 4293379707
2.471 1.41 -0.82999998 4293379707
1.819 1.102 -0.82700002 4293379707
1.933 1.156 -0.82800001 4293379707
2.0510001 1.2130001 -0.82599998 4293379707
2.1930001 1.283 -0.82999998 4293379707
2.3380001 1.354 -0.829 4293379707
2.5020001 1.437 -0.829 4293379707
1.8430001 1.123 -0.82800001 4293379707
1.954 1.176 -0.82700002 4293379707
2.0780001 1.2359999 -0.82700002 4293379707
2.2190001 1.3049999 -0.829 4293379707
2.3640001 1.378 -0.82700002 4293379707
2.5339999 1.464 -0.82800001 4293379707
1.862 1.14 -0.82700002 4293379707
1.975 1.194 -0.82499999 4293379707
2.1040001 1.258 -0.82599998 4293379707
2.25 1.332 -0.829 4293379707
2.4000001 1.4069999 -0.82800001 4293379707
2.566 1.4910001 -0.82700002 4293379707
1.8789999 1.156 -0.82300001 4293379707
2.0009999 1.216 -0.82499999 4293379707
2.138 1.285 -0.82800001 4293379707
2.2739999 1.353 -0.82599998 4293379707
2.4330001 1.433 -0.82700002 4293379707
2.599 1.5190001 -0.824 4293379707
1.913 1.182 -0.82700002 4293379707
2.026 1.2359999 -0.824 4293379707
2.161 1.3049999 -0.82599998 4293379707
2.312 1.381 -0.82700002 4293379707
2.4619999 1.457 -0.824 4293379707
2.642 1.551 -0.82499999 4293379707
1.934 1.199 -0.82499999 4293379707
2.05 1.256 -0.82200003 4293379707
2.1930001 1.329 -0.82499999 4293379707
2.3410001 1.404 -0.82499999 4293379707
2.5039999 1.488 -0.82499999 4293379707
2.6819999 1.581 -0.82300001 4293379707
1.9630001 1.222 -0.82499999 4293379707
2.0869999 1.283 -0.82499999 4293379707
2.2249999 1.353 -0.82499999 4293379707
2.3800001 1.433 -0.82599998 4293379707
2.5380001 1.515 -0.82200003 4293379707
2.7290001 1.615 -0.82300001 4293379707
1.987 1.24 -0.82300001 4293379707
2.1170001 1.3049999 -0.824 4293379707
2.266 1.382 -0.82700002 4293379707
2.418 1.461 -0.82499999 4293379707
2.582 1.546 -0.82200003 4293379707
2.776 1.649 -0.82200003 4293379707
2.0220001 1.2640001 -0.824 4293379707
2.152 1.33 -0.824 4293379707
2.2969999 1.405 -0.824 4293379707
2.4530001 1.4859999 -0.82300001 4293379707
2.625 1.577 -0.82099998 4293379707
2.825 1.683 -0.82099998 4293379707
2.0480001 1.283 -0.82200003 4293379707
2.1830001 1.352 -0.82200003 4293379707
2.3380001 1.434 -0.82499999 4293379707
2.4960001 1.515 -0.82200003 4293379707
2.675 1.6109999 -0.82099998 4293379707
2.8789999 1.72 -0.82099998 4293379707
2.0840001 1.308 -0.82300001 4293379707
2.224 1.38 -0.824 4293379707
2.3729999 1.457 -0.82200003 4293379707
2.5469999 1.55 -0.824 4293379707
2.73 1.647 -0.82200003 4293379707
2.9330001 1.756 -0.81900001 4293379707
2.119 1.331 -0.82200003 4293379707
2.2639999 1.406 -0.82300001 4293379707
2.4230001 1.49 -0.824 4293379707
2.589 1.5779999 -0.82200003 4293379707
2.7780001 1.679 -0.81999999 4293379707
2.957 1.774 -0.80900002 4293379707
2.1589999 1.3559999 -0.82300001 4293379707
2.303 1.431 -0.82200003 4293379707
2.4649999 1.517 -0.82300001 4293379707
2.6370001 1.609 -0.82099998 4293379707
2.8380001 1.717 -0.81999999 4293379707
2.9549999 1.775 -0.79100001 4293379707
2.1960001 1.38 -0.82200003 4293379707
2.352 1.462 -0.824 4293379707
2.5120001 1.5470001 -0.82200003 4293379707
2.6919999 1.643 -0.82099998 4293379707
2.8929999 1.752 -0.81900001 4293379707
2.9560001 1.778 -0.773 4293379707
2.234 1.403 -0.82099998 4293379707
2.3940001 1.488 -0.82300001 4293379707
2.5650001 1.579 -0.82300001 4293379707
2.747 1.677 -0.81999999 4293379707
2.947 1.785 -0.815 4293379707
2.9549999 1.778 -0.755 4293379707
2.28 1.431 -0.82099998 4293379707
2.4430001 1.517 -0.82300001 4293379707
2.6110001 1.607 -0.81999999 4293379707
2.8050001 1.712 -0.81900001 4293379707
2.9549999 1.79 -0.79900002 4293379707
2.9579999 1.78 -0.73699999 4293379707
2.3280001 1.459 -0.82200003 4293379707
2.49 1.545 -0.82200003 4293379707
2.665 1.6390001 -0.81999999 4293379707
2.8699999 1.751 -0.81900001 4293379707
2.9519999 1.788 -0.77899998 4293379707
2.9519999 1.775 -0.71700001 4293379707
2.378 1.488 -0.82300001 4293379707
2.5450001 1.577 -0.82200003 4293379707
2.7260001 1.674 -0.81999999 4293379707
2.9349999 1.788 -0.81900001 4293379707
2.9460001 1.7819999 -0.759 4293379707
2.947 1.771 -0.69700003 4293379707
2.428 1.516 -0.82300001 4293379707
2.5969999 1.6059999 -0.82099998 4293379707
2.7909999 1.711 -0.81999999 4293379707
2.954 1.7970001 -0.80400002 4293379707
2.95 1.7819999 -0.741 4293379707
2.951 1.772 -0.68000001 4293379707
2.4820001 1.545 -0.82300001 4293379707
2.6489999 1.6339999 -0.81900001 4293379707
2.8529999 1.745 -0.81900001 4293379707
2.9519999 1.7920001 -0.78399998 4293379707
2.95 1.779 -0.722 4293379707
2.9460001 1.766 -0.66000003 4293379707
2.533 1.572 -0.82200003 4293379707
2.717 1.6720001 -0.82099998 4293379707
2.9230001 1.784 -0.81999999 4293379707
2.9519999 1.788 -0.76499999 4293379707
2.954 1.778 -0.70300001 4293379707
2.948 1.7640001 -0.64200002 4293379707
2.5929999 1.604 -0.82300001 4293379707
2.7780001 1.704 -0.81999999 4293379707
2.9560001 1.799 -0.80900002 4293379707
2.9519999 1.783 -0.745 4293379707
2.9460001 1.7690001 -0.68199998 4293379707
2.95 1.761 -0.62300003 4293379707
2.648 1.632 -0.82099998 4293379707
2.846 1.739 -0.81999999 4293379707
2.96 1.795 -0.79000002 4293379707
2.9489999 1.776 -0.72500002 4293379707
2.9460001 1.7640001 -0.66299999 4293379707
2.9489999 1.755 -0.60399997 4293379707
2.7119999 1.665 -0.82099998 4293379707
2.9189999 1.777 -0.82099998 4293379707
2.95 1.783 -0.76700002 4293379707
2.957 1.775 -0.70700002 4293379707
2.9489999 1.7589999 -0.64499998 4293379707
2.9519999 1.752 -0.58600003 4293379707
2.7750001 1.696 -0.82099998 4293379707
2.9549999 1.791 -0.81099999 4293379707
2.96 1.781 -0.75 4293379707
2.9590001 1.7690001 -0.68800002 4293379707
2.95 1.753 -0.62599999 4293379707
2.9519999 1.7460001 -0.56800002 4293379707
2.846 1.73 -0.82200003 4293379707
2.9590001 1.785 -0.79100001 4293379707
2.96 1.773 -0.72899997 4293379707
2.9590001 1.762 -0.66799998 4293379707
2.9519999 1.748 -0.60699999 4293379707
2.9549999 1.7410001 -0.54900002 4293379707
2.921 1.767 -0.82300001 4293379707
2.9590001 1.776 -0.77100003 4293379707
2.96 1.765 -0.70999998 4293379707
2.964 1.756 -0.64999998 4293379707
2.9549999 1.7410001 -0.58899999 4293379707
2.9579999 1.735 -0.53100002 4293379707
2.9649999 1.783 -0.81400001 4293379707
2.9630001 1.7690001 -0.75099999 4293379707
2.964 1.758 -0.69 4293379707
2.964 1.747 -0.63099998 4293379707
2.9649999 1.739 -0.57200003 4293379707
2.961 1.729 -0.51300001 4293379707
2.971 1.776 -0.79500002 4293379707
2.9749999 1.766 -0.73400003 4293379707
2.9749999 1.755 -0.67299998 4293379707
2.97 1.742 -0.61199999 4293379707
2.9719999 1.734 -0.55400002 4293379707
2.9690001 1.725 -0.495 4293379707
2.973 1.766 -0.77399999 4293379707
2.98 1.758 -0.71499997 4293379707
2.9820001 1.748 -0.65499997 4293379707
2.9779999 1.7359999 -0.59500003 4293379707
2.9820001 1.73 -0.537 4293379707
2.98 1.721 -0.47799999 4293379707
2.9920001 1.765 -0.759 4293379707
2.9890001 1.751 -0.69700003 4293379707
2.994 1.744 -0.63800001 4293379707
2.993 1.734 -0.57800001 4293379707
2.9949999 1.727 -0.51999998 4293379707
2.9909999 1.7180001 -0.46200001 4293379707
3.0009999 1.758 -0.741 4293379707
2.9990001 1.745 -0.67900002 4293379707
3.0009999 1.7359999 -0.62 4293379707
2.9960001 1.724 -0.55900002 4293379707
2.9920001 1.714 -0.50099999 4293379707
2.994 1.709 -0.44299999 4293379707
3.0090001 1.749 -0.722 4293379707
3.0050001 1.7359999 -0.66100001 4293379707
3.0079999 1.728 -0.602 4293379707
3.0020001 1.716 -0.542 4293379707
3.007 1.711 -0.484 4293379707
3.003 1.7029999 -0.426 4293379707
3.0209999 1.743 -0.70499998 4293379707
3.0139999 1.728 -0.64300001 4293379707
3.0190001 1.721 -0.58399999 4293379707
3.016 1.711 -0.52499998 4293379707
3.0120001 1.702 -0.46599999 4293379707
3.0120001 1.696 -0.40900001 4293379707
3.0380001 1.738 -0.68900001 4293379707
3.036 1.726 -0.62800002 4293379707
3.027 1.712 -0.56599998 4293379707
3.026 1.704 -0.50800002 4293379707
3.02 1.694 -0.449 4293379707
3.0250001 1.691 -0.39199999 4293379707
3.0469999 1.728 -0.671 4293379707
3.0439999 1.717 -0.61000001 4293379707
3.046 1.709 -0.551 4293379707
3.0380001 1.697 -0.491 4293379707
3.0369999 1.6900001 -0.433 4293379707
3.039 1.686 -0.37599999 4293379707
3.062 1.721 -0.65399998 4293379707
3.0569999 1.709 -0.59299999 4293379707
3.0569999 1.701 -0.53399998 4293379707
3.0550001 1.692 -0.47499999 4293379707
3.052 1.6849999 -0.417 4293379707
3.0469999 1.677 -0.359 4293379707
3.075 1.7130001 -0.63700002 4293379707
3.0769999 1.705 -0.57800001 4293379707
3.0710001 1.694 -0.51800001 4293379707
3.069 1.686 -0.45899999 4293379707
3.0639999 1.677 -0.40000001 4293379707
3.059 1.67 -0.34299999 4293379707
3.0899999 1.705 -0.62099999 4293379707
3.0899999 1.696 -0.56099999 4293379707
3.085 1.686 -0.50099999 4293379707
3.0739999 1.673 -0.44100001 4293379707
3.0840001 1.673 -0.38499999 4293379707
3.0769999 1.665 -0.32699999 4293379707
3.1070001 1.698 -0.60500002 4293379707
3.108 1.689 -0.54500002 4293379707
3.1029999 1.679 -0.48500001 4293379707
3.099 1.671 -0.42699999 4293379707
3.0969999 1.665 -0.368 4293379707
3.098 1.661 -0.31099999 4293379707
3.1289999 1.692 -0.58999997 4293379707
3.1270001 1.683 -0.52999997 4293379707
3.1199999 1.6720001 -0.47 4293379707
3.112 1.6619999 -0.41 4293379707
3.1110001 1.6569999 -0.35299999 4293379707
3.1070001 1.65 -0.29499999 4293379707
3.152 1.687 -0.57599998 4293379707
3.148 1.677 -0.51499999 4293379707
3.1340001 1.6619999 -0.454 4293379707
3.135 1.658 -0.39500001 4293379707
3.1300001 1.65 -0.33700001 4293379707
3.125 1.6440001 -0.27900001 4293379707
3.165 1.675 -0.55900002 4293379707
3.1659999 1.668 -0.49900001 4293379707
3.155 1.656 -0.43900001 4293379707
3.155 1.651 -0.38 4293379707
3.148 1.643 -0.32100001 4293379707
3.145 1.637 -0.264 4293379707
3.1919999 1.67 -0.54500002 4293379707
3.187 1.661 -0.48500001 4293379707
3.181 1.652 -0.42399999 4293379707
3.168 1.6390001 -0.36399999 4293379707
3.171 1.637 -0.30599999 4293379707
3.194 1.645 -0.25099999 4293379707
3.2119999 1.6619999 -0.53100002 4293379707
3.2049999 1.651 -0.46900001 4293379707
3.2 1.643 -0.41 4293379707
3.191 1.633 -0.34999999 4293379707
3.1900001 1.6289999 -0.29100001 4293379707
3.132 1.597 -0.229 4293379707
3.2279999 1.651 -0.51499999 4293379707
3.22 1.64 -0.454 4293379707
3.2179999 1.633 -0.39399999 4293379707
3.214 1.627 -0.33500001 4293379707
3.204 1.617 -0.27599999 4293379707
3.178 1.602 -0.21600001 4293379707
3.26 1.647 -0.50300002 4293379707
3.2579999 1.64 -0.442 4293379707
3.2579999 1.6339999 -0.382 4293379707
3.2349999 1.618 -0.31999999 4293379707
3.253 1.623 -0.26300001 4293379707
3.2119999 1.6 -0.20200001 4293379707
3.2850001 1.627 -0.368 4293379707
3.2739999 1.618 -0.308 4293379707
3.2750001 1.615 -0.249 4293379707
3.711 0.91100001 -0.91799998 4293379707
3.3789999 0.85299999 -0.912 4293379707
3.6500001 0.921 -0.91600001 4293379707
3.086 0.80199999 -0.903 4293379707
3.326 0.86299998 -0.90899998 4293379707
3.5910001 0.93099999 -0.91299999 4293379707
3.0420001 0.81199998 -0.90100002 4293379707
3.2679999 0.87199998 -0.90399998 4293379707
3.533 0.94099998 -0.91000003 4293379707
3.0009999 0.82300001 -0.89899999 4293379707
3.2249999 0.88300002 -0.903 4293379707
3.474 0.94999999 -0.90499997 4293379707
2.9579999 0.833 -0.89600003 4293379707
3.1830001 0.89499998 -0.90200001 4293379707
3.4289999 0.963 -0.90399998 4293379707
2.918 0.84399998 -0.89399999 4293379707
3.135 0.90499997 -0.898 4293379707
3.381 0.97399998 -0.90200001 4293379707
2.8800001 0.85399997 -0.89099997 4293379707
