# .PCD v0.7 - Point Cloud Data file format
VERSION 0.7
FIELDS x y z rgb
SIZE 4 4 4 4
TYPE F F F U
COUNT 1 1 1 1
WIDTH 1248
HEIGHT 1
VIEWPOINT 0 0 0 1 0 0 0
POINTS 1248
DATA ascii
2.648 0.035 0.0040000002 4279630765
2.648 0.029999999 0.089000002 4279630765
2.6919999 0.027000001 -0.118 4279630765
2.6800001 0.025 -0.074000001 4279630765
2.658 0.021 -0.029999999 4279630765
2.6110001 0.017999999 0.012 4279630765
2.6370001 0.016000001 0.054000001 4279630765
2.628 0.013 0.097000003 4279630765
2.674 0.0099999998 -0.109 4279630765
2.671 0.0070000002 -0.066 4279630765
2.632 0.0040000002 -0.022 4279630765
2.6199999 0.0020000001 0.018999999 4279630765
2.625 0 0.061999999 4279630765
2.658 -0.0060000001 -0.101 4279630765
2.6440001 -0.0089999996 -0.057999998 4279630765
2.6129999 -0.011 -0.015 4279630765
2.6159999 -0.014 0.026000001 4279630765
2.6329999 -0.022 -0.093000002 4279630765
2.6240001 -0.025 -0.050000001 4279630765
2.6010001 -0.028000001 -0.0080000004 4279630765
2.625 -0.039000001 -0.086000003 4279630765
2.687 -0.046999998 -0.23 4279630765
2.665 -0.046 -0.182 4279630765
2.651 -0.045000002 -0.13600001 4279630765
2.6329999 -0.044 -0.090999998 4279630765
2.675 -0.039000001 -0.211 4279630765
2.6559999 -0.037999999 -0.16500001 4279630765
2.6300001 -0.037 -0.119 4279630765
2.6210001 -0.035999998 -0.074000001 4279630765
2.608 -0.035 -0.028999999 4279630765
2.6659999 -0.032000002 -0.193 4279630765
2.651 -0.030999999 -0.147 4279630765
2.6370001 -0.029999999 -0.102 4279630765
2.615 -0.028999999 -0.057 4279630765
2.6070001 -0.028000001 -0.013 4279630765
2.665 -0.025 -0.176 4279630765
2.642 -0.024 -0.13 4279630765
2.6289999 -0.023 -0.083999999 4279630765
2.6240001 -0.022 -0.039999999 4279630765
2.6559999 -0.018999999 -0.15700001 4279630765
2.638 -0.017999999 -0.112 4279630765
2.6340001 -0.017000001 -0.067000002 4279630765
2.619 -0.016000001 -0.023 4279630765
2.6010001 -0.015 0.02 4279630765
2.654 -0.012 -0.14 4279630765
2.642 -0.011 -0.094999999 4279630765
2.6389999 -0.0099999998 -0.050000001 4279630765
2.615 -0.0080000004 0.037 4279630765
2.596 -0.0070000002 0.079999998 4279630765
2.655 -0.0060000001 -0.122 4279630765
2.654 -0.0049999999 -0.077 4279630765
2.6389999 -0.0040000002 -0.033 4279630765
2.622 -0.0020000001 0.054000001 4279630765
2.5799999 -0.001 0.097000003 4279630765
2.609 0 -0.103 4279630765
2.661 0 -0.059999999 4279630765
2.6159999 0.001 -0.015 4279630765
2.622 0.0020000001 0.028000001 4279630765
2.6159999 0.003 0.071999997 4279630765
2.6670001 0.0049999999 -0.086999997 4279630765
2.645 0.0060000001 -0.041999999 4279630765
2.6259999 0.0070000002 0.001 4279630765
2.628 0.0080000004 0.045000002 4279630765
2.598 0.0089999996 0.088 4279630765
2.612 0.0099999998 0.133 4279630765
2.6600001 0.011 -0.068999998 4279630765
2.6300001 0.012 -0.024 4279630765
2.618 0.013 0.018999999 4279630765
2.6210001 0.014 0.063000001 4279630765
2.5999999 0.015 0.106 4279630765
2.658 0.016000001 -0.050999999 4279630765
2.6259999 0.017999999 0.035999998 4279630765
2.605 0.018999999 0.079999998 4279630765
2.6129999 0.02 0.124 4279630765
2.651 0.021 -0.033 4279630765
2.619 0.023 0.054000001 4279630765
2.615 0.024 0.097999997 4279630765
2.625 0.026000001 0.142 4279630765
2.6099999 0.026000001 -0.015 4279630765
2.6199999 0.027000001 0.028000001 4279630765
2.6229999 0.028000001 0.071999997 4279630765
2.6210001 0.028999999 0.115 4279630765
2.6229999 0.030999999 0.16 4279630765
2.6240001 0.032000002 0.046 4279630765
2.6229999 0.033 0.089000002 4279630765
2.6270001 0.034000002 0.134 4279630765
2.612 0.035999998 0.177 4279630765
2.618 0.035 0.02 4279630765
2.6259999 0.035999998 0.064000003 4279630765
2.6359999 0.037999999 0.108 4279630765
2.631 0.039000001 0.152 4279630765
2.632 0.039000001 0.037999999 4279630765
2.642 0.041000001 0.082000002 4279630765
2.6370001 0.041999999 0.126 4279630765
2.628 0.044 0.17 4279630765
2.632 0.043000001 0.056000002 4279630765
2.6440001 0.045000002 0.1 4279630765
2.6340001 0.046 0.14399999 4279630765
2.6289999 0.048 0.18799999 4279630765
2.6530001 0.048 0.074000001 4279630765
2.641 0.048999999 0.118 4279630765
2.6329999 0.050000001 0.162 4279630765
2.6259999 0.052000001 0.206 4279630765
2.6500001 0.050999999 0.093000002 4279630765
2.6370001 0.052000001 0.13600001 4279630765
2.6329999 0.054000001 0.18000001 4279630765
2.6470001 0.054000001 0.111 4279630765
2.6359999 0.056000002 0.154 4279630765
2.631 0.057 0.198 4279630765
2.6489999 0.057999998 0.12899999 4279630765
2.632 0.059 0.17200001 4279630765
2.6389999 0.061000001 0.21699999 4279630765
2.6470001 0.061000001 0.147 4279630765
2.6329999 0.061999999 0.19 4279630765
2.6359999 0.063000001 0.16500001 4279630765
2.628 0.064999998 0.208 4279630765
2.6340001 0.064999998 0.183 4279630765
2.6470001 0.068000004 0.228 4279630765
2.628 0.068000004 0.2 4279630765
2.6259999 0.07 0.219 4279630765
2.6370001 -0.045000002 -0.090000004 4279630765
2.6300001 -0.041999999 -0.050000001 4279630765
2.628 -0.027000001 -0.094999999 4279630765
2.6159999 -0.024 -0.054000001 4279630765
2.598 -0.021 -0.014 4279630765
2.609 -0.017999999 0.025 4279630765
2.575 -0.015 0.064000003 4279630765
2.651 -0.0099999998 -0.101 4279630765
2.6400001 -0.0070000002 -0.059999999 4279630765
2.6229999 -0.0040000002 -0.018999999 4279630765
2.6129999 -0.001 0.02 4279630765
2.6259999 0.001 0.061000001 4279630765
2.609 0.0040000002 0.101 4279630765
2.668 0.0070000002 -0.106 4279630765
2.6659999 0.0099999998 -0.064999998 4279630765
2.642 0.013 -0.024 4279630765
2.6210001 0.016000001 0.016000001 4279630765
2.632 0.018999999 0.056000002 4279630765
2.6259999 0.022 0.097000003 4279630765
2.691 0.026000001 -0.112 4279630765
2.6860001 0.028999999 -0.07 4279630765
2.6570001 0.032000002 -0.028000001 4279630765
2.6470001 0.037 0.052999999 4279630765
2.6389999 0.039999999 0.093000002 4279630765
2.7090001 0.045000002 -0.117 4279630765
2.691 0.046999998 -0.074000001 4279630765
2.6819999 0.050000001 -0.033 4279630765
2.651 0.052999999 0.0080000004 4279630765
2.6659999 0.056000002 0.048999999 4279630765
2.6600001 0.057999998 0.090000004 4279630765
2.7290001 0.064000003 -0.122 4279630765
2.7290001 0.067000002 -0.079999998 4279630765
2.707 0.068999998 -0.037 4279630765
2.6789999 0.071000002 0.0040000002 4279630765
2.6989999 0.075000003 0.046 4279630765
2.6889999 0.077 0.086999997 4279630765
2.757 0.083999999 -0.127 4279630765
2.75 0.086000003 -0.083999999 4279630765
2.743 0.089000002 -0.041000001 4279630765
2.7160001 0.090999998 0 4279630765
2.7160001 0.093999997 0.041999999 4279630765
2.707 0.097000003 0.083999999 4279630765
2.7709999 0.104 -0.132 4279630765
2.7739999 0.106 -0.089000002 4279630765
2.7590001 0.109 -0.045000002 4279630765
2.753 0.111 -0.0020000001 4279630765
2.734 0.113 0.039000001 4279630765
2.7249999 0.116 0.082000002 4279630765
2.79 0.123 -0.13600001 4279630765
2.7850001 0.126 -0.092 4279630765
2.7780001 0.12899999 -0.048999999 4279630765
2.7709999 0.131 -0.0060000001 4279630765
2.753 0.133 0.035999998 4279630765
2.7490001 0.13600001 0.079000004 4279630765
2.816 0.14399999 -0.141 4279630765
2.809 0.147 -0.097000003 4279630765
2.7969999 0.149 -0.052000001 4279630765
2.7909999 0.15099999 -0.0089999996 4279630765
2.7780001 0.154 0.034000002 4279630765
2.7679999 0.156 0.077 4279630765
2.8410001 0.16599999 -0.145 4279630765
2.8269999 0.167 -0.1 4279630765
2.823 0.17 -0.056000002 4279630765
2.806 0.171 -0.012 4279630765
2.79 0.17299999 0.030999999 4279630765
2.7869999 0.176 0.074000001 4279630765
2.8629999 0.18700001 -0.149 4279630765
2.8510001 0.189 -0.104 4279630765
2.8399999 0.19 -0.059 4279630765
2.8269999 0.192 -0.015 4279630765
2.8110001 0.19400001 0.028999999 4279630765
2.8039999 0.19599999 0.071999997 4279630765
2.855 0.206 -0.152 4279630765
2.8759999 0.20999999 -0.108 4279630765
2.859 0.211 -0.061999999 4279630765
2.8540001 0.214 -0.017000001 4279630765
2.8369999 0.215 0.026000001 4279630765
2.8210001 0.21699999 0.071000002 4279630765
2.8399999 0.22499999 -0.153 4279630765
2.8940001 0.23199999 -0.111 4279630765
2.8800001 0.233 -0.064999998 4279630765
2.8729999 0.235 -0.02 4279630765
2.862 0.237 0.024 4279630765
2.848 0.23899999 0.068999998 4279630765
2.8329999 0.244 -0.155 4279630765
2.9170001 0.25400001 -0.114 4279630765
2.902 0.255 -0.068000004 4279630765
2.891 0.257 -0.022 4279630765
2.8740001 0.25799999 0.023 4279630765
2.868 0.25999999 0.068000004 4279630765
2.915 0.27399999 -0.116 4279630765
2.9260001 0.278 -0.07 4279630765
2.9130001 0.27900001 -0.024 4279630765
2.8959999 0.28 0.021 4279630765
2.882 0.28200001 0.066 4279630765
2.904 0.294 -0.117 4279630765
2.9460001 0.301 -0.071999997 4279630765
2.9330001 0.30199999 -0.025 4279630765
2.921 0.303 0.02 4279630765
2.905 0.30399999 0.066 4279630765
2.8940001 0.31299999 -0.118 4279630765
2.9679999 0.324 -0.074000001 4279630765
2.9519999 0.324 -0.027000001 4279630765
2.931 0.32499999 0.018999999 4279630765
2.9260001 0.32699999 0.064999998 4279630765
2.9879999 0.347 -0.075999998 4279630765
2.974 0.34799999 -0.028000001 4279630765
2.9579999 0.34799999 0.017999999 4279630765
2.951 0.35100001 0.064999998 4279630765
2.9809999 0.36700001 -0.077 4279630765
2.9920001 0.37099999 -0.028999999 4279630765
2.9560001 0.36899999 0.017000001 4279630765
2.9300001 0.36899999 0.063000001 4279630765
2.967 0.38699999 -0.077 4279630765
2.96 0.38800001 -0.029999999 4279630765
2.9319999 0.38699999 0.016000001 4279630765
2.9070001 0.38600001 0.063000001 4279630765
2.9560001 0.40599999 -0.077 4279630765
2.9389999 0.40599999 -0.029999999 4279630765
2.71 0.162 0.35699999 4279630765
2.684 0.15099999 0.33700001 4279630765
2.6670001 0.142 0.31799999 4279630765
2.658 0.133 0.30000001 4279630765
2.6600001 0.125 0.28400001 4279630765
2.6559999 0.117 0.266 4279630765
2.654 0.109 0.249 4279630765
2.661 0.106 0.28999999 4279630765
2.6500001 0.101 0.23199999 4279630765
2.6489999 0.098999999 0.27200001 4279630765
2.6489999 0.093999997 0.215 4279630765
2.642 0.090999998 0.25400001 4279630765
2.6500001 0.086999997 0.198 4279630765
2.6400001 0.083999999 0.236 4279630765
2.6500001 0.079999998 0.18000001 4279630765
2.6370001 0.077 0.219 4279630765
2.648 0.072999999 0.163 4279630765
2.6370001 0.071000002 0.20100001 4279630765
2.6329999 0.068000004 0.23999999 4279630765
2.648 0.067000002 0.146 4279630765
2.6370001 0.064000003 0.184 4279630765
2.6459999 0.061999999 0.22400001 4279630765
2.651 0.061000001 0.12800001 4279630765
2.6400001 0.057999998 0.167 4279630765
2.6329999 0.056000002 0.206 4279630765
2.645 0.055 0.111 4279630765
2.641 0.052999999 0.15000001 4279630765
2.628 0.050000001 0.18799999 4279630765
2.6500001 0.048999999 0.093000002 4279630765
2.642 0.046999998 0.132 4279630765
2.632 0.045000002 0.17 4279630765
2.645 0.043000001 0.075999998 4279630765
2.641 0.041999999 0.115 4279630765
2.638 0.039999999 0.153 4279630765
2.6229999 0.037999999 0.057999998 4279630765
2.6429999 0.035999998 0.097000003 4279630765
2.635 0.035 0.13500001 4279630765
2.6329999 0.033 0.17399999 4279630765
2.618 0.033 0.039999999 4279630765
2.6300001 0.030999999 0.079000004 4279630765
2.6359999 0.029999999 0.118 4279630765
2.6259999 0.028000001 0.156 4279630765
2.609 0.028000001 0.022 4279630765
2.615 0.026000001 0.061000001 4279630765
2.6240001 0.025 0.098999999 4279630765
2.6240001 0.024 0.138 4279630765
2.6059999 0.022 0.043000001 4279630765
2.6210001 0.021 0.082000002 4279630765
2.625 0.02 0.12 4279630765
2.599 0.017000001 0.025 4279630765
2.609 0.016000001 0.063000001 4279630765
2.6099999 0.015 0.102 4279630765
2.6140001 0.014 0.14 4279630765
2.6300001 0.014 -0.028999999 4279630765
2.6270001 0.012 0.046 4279630765
2.6210001 0.011 0.083999999 4279630765
2.6140001 0.011 0.122 4279630765
2.648 0.0099999998 -0.048 4279630765
2.6229999 0.0089999996 0.028000001 4279630765
2.6259999 0.0080000004 0.066 4279630765
2.6099999 0.0070000002 0.104 4279630765
2.654 0.0070000002 -0.066 4279630765
2.6270001 0.0060000001 -0.027000001 4279630765
2.6259999 0.0040000002 0.048 4279630765
2.6440001 0.003 -0.083999999 4279630765
2.6429999 0.0020000001 -0.045000002 4279630765
2.645 0.0020000001 -0.0070000002 4279630765
2.622 0.001 0.029999999 4279630765
2.642 0 -0.102 4279630765
2.6670001 0 -0.064000003 4279630765
2.631 0 -0.025 4279630765
2.6270001 -0.001 0.050000001 4279630765
2.658 -0.003 -0.121 4279630765
2.6619999 -0.003 -0.082999997 4279630765
2.645 -0.003 -0.044 4279630765
2.622 -0.0040000002 0.032000002 4279630765
2.6199999 -0.0040000002 0.07 4279630765
2.6570001 -0.0060000001 -0.139 4279630765
2.6489999 -0.0060000001 -0.1 4279630765
2.648 -0.0060000001 -0.061999999 4279630765
2.6270001 -0.0060000001 -0.023 4279630765
2.6070001 -0.0060000001 0.014 4279630765
2.6129999 -0.0060000001 0.050999999 4279630765
2.6659999 -0.0080000004 -0.15800001 4279630765
2.652 -0.0089999996 -0.119 4279630765
2.6559999 -0.0089999996 -0.079999998 4279630765
2.6389999 -0.0089999996 -0.041999999 4279630765
2.6129999 -0.0089999996 0.033 4279630765
2.6830001 -0.011 -0.178 4279630765
2.6630001 -0.011 -0.138 4279630765
2.6570001 -0.011 -0.098999999 4279630765
2.6470001 -0.011 -0.059999999 4279630765
2.612 -0.011 -0.021 4279630765
2.6930001 -0.013 -0.197 4279630765
2.6760001 -0.013 -0.15700001 4279630765
2.6589999 -0.013 -0.117 4279630765
2.6470001 -0.013 -0.079000004 4279630765
2.635 -0.012 -0.039999999 4279630765
2.6949999 -0.016000001 -0.21600001 4279630765
2.6849999 -0.015 -0.176 4279630765
2.678 -0.015 -0.13699999 4279630765
2.6530001 -0.014 -0.097000003 4279630765
2.635 -0.014 -0.057999998 4279630765
2.6010001 -0.013 -0.02 4279630765
2.6989999 -0.017999999 -0.235 4279630765
2.694 -0.017000001 -0.19599999 4279630765
2.6800001 -0.017000001 -0.156 4279630765
2.6689999 -0.016000001 -0.116 4279630765
2.641 -0.015 -0.077 4279630765
2.618 -0.015 -0.037999999 4279630765
2.6819999 -0.018999999 -0.25299999 4279630765
2.6930001 -0.018999999 -0.215 4279630765
2.6889999 -0.017999999 -0.175 4279630765
2.674 -0.017000001 -0.13500001 4279630765
2.665 -0.017000001 -0.096000001 4279630765
2.6199999 -0.016000001 -0.057 4279630765
2.6760001 -0.021 -0.271 4279630765
2.698 -0.02 -0.234 4279630765
2.6919999 -0.018999999 -0.19400001 4279630765
2.6819999 -0.018999999 -0.154 4279630765
2.664 -0.017999999 -0.115 4279630765
2.652 -0.017000001 -0.075999998 4279630765
2.6849999 -0.021 -0.252 4279630765
2.6960001 -0.02 -0.213 4279630765
2.6900001 -0.018999999 -0.17399999 4279630765
2.6719999 -0.017999999 -0.134 4279630765
2.6630001 -0.017000001 -0.094999999 4279630765
2.681 -0.022 -0.27000001 4279630765
2.698 -0.021 -0.23199999 4279630765
2.694 -0.02 -0.193 4279630765
2.6849999 -0.018999999 -0.153 4279630765
2.671 -0.017999999 -0.114 4279630765
2.6900001 -0.022 -0.25099999 4279630765
2.6960001 -0.021 -0.212 4279630765
2.687 -0.018999999 -0.17200001 4279630765
2.677 -0.017999999 -0.133 4279630765
2.674 -0.022 -0.26800001 4279630765
2.701 -0.021 -0.23100001 4279630765
2.6930001 -0.018999999 -0.191 4279630765
2.6819999 -0.017999999 -0.15099999 4279630765
2.697 -0.021 -0.25 4279630765
2.691 -0.018999999 -0.20999999 4279630765
2.684 -0.017999999 -0.17 4279630765
2.6789999 -0.02 -0.26699999 4279630765
2.704 -0.018999999 -0.23 4279630765
2.6919999 -0.017000001 -0.189 4279630765
2.7030001 -0.017999999 -0.249 4279630765
2.698 -0.016000001 -0.20900001 4279630765
2.6689999 -0.017000001 -0.264 4279630765
2.7079999 -0.015 -0.228 4279630765
2.7119999 -0.014 -0.248 4279630765
2.664 -0.012 -0.26199999 4279630765
2.684 -0.011 -0.28299999 4279630765
2.961 0.40599999 -0.059999999 4279630765
2.9400001 0.40000001 -0.012 4279630765
2.9170001 0.39500001 0.034000002 4279630765
2.987 0.389 -0.052999999 4279630765
2.9590001 0.38299999 -0.0060000001 4279630765
2.938 0.37799999 0.039999999 4279630765
2.9330001 0.36500001 -0.093000002 4279630765
3.007 0.37099999 -0.046999998 4279630765
2.9820001 0.366 0 4279630765
2.9660001 0.361 0.046999998 4279630765
2.9579999 0.34799999 -0.088 4279630765
2.9820001 0.34799999 -0.041000001 4279630765
2.9619999 0.34299999 0.0060000001 4279630765
2.948 0.33899999 0.052000001 4279630765
2.974 0.329 -0.082999997 4279630765
2.9579999 0.32499999 -0.035 4279630765
2.9419999 0.32100001 0.011 4279630765
2.9219999 0.31600001 0.057999998 4279630765
2.8959999 0.30399999 -0.121 4279630765
2.9590001 0.30700001 -0.077 4279630765
2.9389999 0.303 -0.028999999 4279630765
2.915 0.29800001 0.017000001 4279630765
2.9059999 0.294 0.063000001 4279630765
2.911 0.28600001 -0.116 4279630765
2.931 0.28400001 -0.07 4279630765
2.915 0.28 -0.024 4279630765
2.8940001 0.27500001 0.022 4279630765
2.8770001 0.271 0.067000002 4279630765
2.9260001 0.26699999 -0.112 4279630765
2.911 0.26300001 -0.064999998 4279630765
2.8940001 0.25799999 -0.018999999 4279630765
2.8729999 0.25400001 0.026000001 4279630765
2.8610001 0.25 0.071999997 4279630765
2.8410001 0.243 -0.149 4279630765
2.9100001 0.245 -0.107 4279630765
2.8940001 0.241 -0.059999999 4279630765
2.8740001 0.237 -0.014 4279630765
2.8559999 0.233 0.030999999 4279630765
2.8329999 0.228 0.075000003 4279630765
2.8570001 0.22400001 -0.146 4279630765
2.882 0.223 -0.101 4279630765
2.868 0.219 -0.055 4279630765
2.8529999 0.215 -0.0089999996 4279630765
2.832 0.211 0.035 4279630765
2.813 0.207 0.079000004 4279630765
2.872 0.206 -0.142 4279630765
2.8610001 0.20200001 -0.096000001 4279630765
2.8469999 0.198 -0.050000001 4279630765
2.8280001 0.19400001 -0.0049999999 4279630765
2.8110001 0.19 0.039000001 4279630765
2.7950001 0.18700001 0.082999997 4279630765
2.8629999 0.185 -0.138 4279630765
2.8410001 0.18099999 -0.090999998 4279630765
2.8210001 0.177 -0.046 4279630765
2.809 0.17299999 -0.001 4279630765
2.789 0.169 0.041999999 4279630765
2.7739999 0.16599999 0.086000003 4279630765
2.839 0.16500001 -0.133 4279630765
2.829 0.161 -0.086999997 4279630765
2.816 0.15700001 -0.041999999 4279630765
2.789 0.153 0.001 4279630765
2.777 0.15000001 0.045000002 4279630765
2.7539999 0.146 0.089000002 4279630765
2.813 0.14399999 -0.12800001 4279630765
2.7969999 0.14 -0.082999997 4279630765
2.7820001 0.13600001 -0.037999999 4279630765
2.766 0.133 0.0049999999 4279630765
2.743 0.12899999 0.048 4279630765
2.727 0.125 0.090999998 4279630765
2.79 0.123 -0.124 4279630765
2.777 0.12 -0.079000004 4279630765
2.77 0.116 -0.035 4279630765
2.7579999 0.113 0.0080000004 4279630765
2.7320001 0.109 0.050999999 4279630765
2.7179999 0.106 0.093999997 4279630765
2.777 0.104 -0.12 4279630765
2.7650001 0.1 -0.075999998 4279630765
2.7460001 0.097000003 -0.032000002 4279630765
2.7290001 0.093000002 0.0099999998 4279630765
2.7130001 0.090000004 0.052999999 4279630765
2.7 0.086000003 0.096000001 4279630765
2.756 0.083999999 -0.117 4279630765
2.7420001 0.081 -0.072999999 4279630765
2.7279999 0.077 -0.028999999 4279630765
2.688 0.072999999 0.013 4279630765
2.688 0.07 0.055 4279630765
2.681 0.067000002 0.097999997 4279630765
2.73 0.064000003 -0.113 4279630765
2.7090001 0.061000001 -0.068999998 4279630765
2.6889999 0.057 -0.026000001 4279630765
2.6570001 0.054000001 0.015 4279630765
2.6589999 0.050999999 0.057 4279630765
2.6459999 0.046999998 0.098999999 4279630765
2.707 0.045000002 -0.11 4279630765
2.6949999 0.041999999 -0.067000002 4279630765
2.6670001 0.037999999 -0.024 4279630765
2.6029999 0.034000002 0.017000001 4279630765
2.654 0.032000002 0.059 4279630765
2.641 0.028999999 0.1 4279630765
2.6889999 0.026000001 -0.107 4279630765
2.6730001 0.023 -0.064000003 4279630765
2.6400001 0.018999999 -0.022 4279630765
2.6300001 0.016000001 0.018999999 4279630765
2.6370001 0.013 0.059999999 4279630765
2.6029999 0.0099999998 0.101 4279630765
2.6689999 0.0070000002 -0.105 4279630765
2.6700001 0.0040000002 -0.063000001 4279630765
2.632 0.001 -0.02 4279630765
2.6210001 -0.0040000002 0.061999999 4279630765
2.655 -0.0099999998 -0.103 4279630765
2.642 -0.013 -0.061000001 4279630765
2.6129999 -0.016000001 -0.018999999 4279630765
2.6129999 -0.018999999 0.022 4279630765
2.628 -0.028000001 -0.1 4279630765
2.622 -0.030999999 -0.059 4279630765
2.6229999 -0.034000002 -0.017999999 4279630765
2.6440001 -0.046999998 -0.1 4279630765
2.7019999 -0.044 -0.248 4279630765
2.697 -0.039000001 -0.229 4279630765
2.6919999 -0.034000002 -0.25600001 4279630765
2.6789999 -0.035 -0.20900001 4279630765
2.707 -0.030999999 -0.23899999 4279630765
2.675 -0.030999999 -0.191 4279630765
2.6789999 -0.026000001 -0.264 4279630765
2.6860001 -0.027000001 -0.219 4279630765
2.677 -0.027000001 -0.17200001 4279630765
2.707 -0.023 -0.248 4279630765
2.6860001 -0.023 -0.2 4279630765
2.677 -0.024 -0.154 4279630765
2.675 -0.018999999 -0.273 4279630765
2.694 -0.02 -0.228 4279630765
2.6889999 -0.02 -0.182 4279630765
2.6760001 -0.021 -0.13600001 4279630765
2.687 -0.016000001 -0.255 4279630765
2.6989999 -0.017000001 -0.20999999 4279630765
2.6860001 -0.017000001 -0.164 4279630765
2.6760001 -0.017999999 -0.118 4279630765
2.7049999 -0.013 -0.28400001 4279630765
2.721 -0.014 -0.23899999 4279630765
2.694 -0.014 -0.191 4279630765
2.6819999 -0.015 -0.145 4279630765
2.664 -0.015 -0.098999999 4279630765
2.668 -0.0099999998 -0.26199999 4279630765
2.7079999 -0.011 -0.219 4279630765
2.6930001 -0.012 -0.17200001 4279630765
2.6789999 -0.012 -0.126 4279630765
2.658 -0.013 -0.079999998 4279630765
2.701 -0.0080000004 -0.24600001 4279630765
2.7060001 -0.0089999996 -0.2 4279630765
2.6889999 -0.0089999996 -0.153 4279630765
2.671 -0.0099999998 -0.107 4279630765
2.6340001 -0.0099999998 -0.061000001 4279630765
2.6689999 -0.0060000001 -0.27000001 4279630765
2.7079999 -0.0070000002 -0.228 4279630765
2.6989999 -0.0070000002 -0.18099999 4279630765
2.6830001 -0.0070000002 -0.134 4279630765
2.661 -0.0080000004 -0.088 4279630765
2.6259999 -0.0080000004 -0.043000001 4279630765
2.6849999 -0.0040000002 -0.252 4279630765
2.698 -0.0049999999 -0.208 4279630765
2.6919999 -0.0049999999 -0.162 4279630765
2.677 -0.0060000001 -0.115 4279630765
2.6470001 -0.0060000001 -0.07 4279630765
2.7049999 -0.003 -0.236 4279630765
2.6949999 -0.003 -0.189 4279630765
2.6860001 -0.0040000002 -0.142 4279630765
2.661 -0.0040000002 -0.096000001 4279630765
2.631 -0.0040000002 -0.050999999 4279630765
2.7030001 -0.0020000001 -0.21600001 4279630765
2.691 -0.0020000001 -0.17 4279630765
2.6689999 -0.0020000001 -0.123 4279630765
2.642 -0.003 -0.077 4279630765
2.6270001 -0.003 -0.032000002 4279630765
2.7030001 -0.001 -0.197 4279630765
2.6819999 -0.001 -0.15000001 4279630765
2.661 -0.001 -0.104 4279630765
2.6459999 -0.0020000001 -0.059 4279630765
2.615 -0.0020000001 0.028999999 4279630765
2.694 0 -0.177 4279630765
2.6730001 0 -0.131 4279630765
2.655 -0.001 -0.085000001 4279630765
2.622 -0.001 0.003 4279630765
2.6199999 -0.001 0.046999998 4279630765
2.6730001 0 -0.15700001 4279630765
2.6589999 0 -0.111 4279630765
2.615 0 0.022 4279630765
2.6289999 0 0.066 4279630765
2.661 0 -0.138 4279630765
2.6659999 0 -0.093000002 4279630765
2.658 0 -0.048 4279630765
2.641 0 -0.003 4279630765
2.6270001 0 0.039999999 4279630765
2.668 0 -0.119 4279630765
2.664 0 -0.074000001 4279630765
2.6370001 0 -0.028999999 4279630765
2.595 0 0.014 4279630765
2.6259999 0 0.057999998 4279630765
2.6040001 0 -0.097999997 4279630765
2.6589999 0 -0.056000002 4279630765
2.619 0 0.033 4279630765
2.658 0 -0.082000002 4279630765
2.6400001 0 -0.037 4279630765
2.631 0 0.0070000002 4279630765
2.6059999 0 0.093999997 4279630765
2.651 -0.001 -0.063000001 4279630765
2.6059999 0 -0.017999999 4279630765
2.5899999 0 0.025 4279630765
2.625 -0.001 -0.044 4279630765
2.582 -0.001 0.043000001 4279630765
2.6129999 -0.001 0.086999997 4279630765
2.645 -0.0020000001 0.017999999 4279630765
2.598 -0.0020000001 0.061000001 4279630765
2.6389999 -0.0040000002 -0.0080000004 4279630765
2.6140001 -0.003 0.079999998 4279630765
2.615 -0.0049999999 0.0099999998 4279630765
2.5929999 -0.0049999999 0.052999999 4279630765
2.618 -0.0070000002 0.071999997 4279630765
2.579 -0.0089999996 0.046 4279630765
2.6029999 -0.011 0.064000003 4279630765
2.6229999 -0.041000001 -0.105 4279630765
2.6259999 -0.037999999 -0.064000003 4279630765
2.622 -0.035 -0.023 4279630765
2.632 -0.023 -0.105 4279630765
2.6300001 -0.02 -0.063000001 4279630765
2.615 -0.017000001 -0.021 4279630765
2.6040001 -0.014 0.018999999 4279630765
2.615 -0.011 0.059999999 4279630765
2.651 -0.0049999999 -0.104 4279630765
2.664 -0.0020000001 -0.061999999 4279630765
2.625 0 -0.02 4279630765
2.6199999 0.003 0.02 4279630765
2.6240001 0.0060000001 0.061999999 4279630765
2.602 0.0089999996 0.102 4279630765
2.681 0.013 -0.103 4279630765
2.665 0.016000001 -0.061000001 4279630765
2.6370001 0.018999999 -0.017999999 4279630765
2.6259999 0.022 0.022 4279630765
2.6359999 0.025 0.064000003 4279630765
2.628 0.027000001 0.105 4279630765
2.651 0.034000002 -0.057999998 4279630765
2.6530001 0.037 -0.017000001 4279630765
2.6489999 0.039999999 0.024 4279630765
2.6429999 0.043000001 0.066 4279630765
2.642 0.046 0.108 4279630765
2.7019999 0.050999999 -0.1 4279630765
2.6919999 0.054000001 -0.057 4279630765
2.6730001 0.056000002 -0.015 4279630765
2.674 0.059 0.027000001 4279630765
2.6689999 0.061999999 0.068999998 4279630765
2.668 0.064999998 0.111 4279630765
2.7390001 0.071000002 -0.098999999 4279630765
2.7279999 0.074000001 -0.056000002 4279630765
2.7030001 0.075999998 -0.012 4279630765
2.6989999 0.078000002 0.028999999 4279630765
2.6960001 0.081 0.071999997 4279630765
2.688 0.083999999 0.114 4279630765
2.7539999 0.090999998 -0.097000003 4279630765
2.7479999 0.093000002 -0.052999999 4279630765
2.7360001 0.096000001 -0.0099999998 4279630765
2.724 0.097999997 0.032000002 4279630765
2.7119999 0.101 0.075000003 4279630765
2.7060001 0.103 0.118 4279630765
2.776 0.111 -0.094999999 4279630765
2.7679999 0.113 -0.050999999 4279630765
2.7550001 0.115 -0.0070000002 4279630765
2.7460001 0.118 0.035999998 4279630765
2.7279999 0.12 0.078000002 4279630765
2.717 0.122 0.121 4279630765
2.7869999 0.131 -0.092 4279630765
2.7780001 0.133 -0.048 4279630765
2.7709999 0.13500001 -0.0040000002 4279630765
2.7650001 0.138 0.039000001 4279630765
2.75 0.14 0.082000002 4279630765
2.7409999 0.142 0.126 4279630765
2.806 0.15099999 -0.089000002 4279630765
2.7980001 0.153 -0.045000002 4279630765
2.793 0.156 0 4279630765
2.78 0.15800001 0.043000001 4279630765
2.767 0.16 0.086000003 4279630765
2.7590001 0.162 0.13 4279630765
2.832 0.17200001 -0.086999997 4279630765
2.8210001 0.17399999 -0.041999999 4279630765
2.8099999 0.176 0.0020000001 4279630765
2.7869999 0.177 0.046 4279630765
2.7820001 0.18000001 0.090000004 4279630765
2.77 0.182 0.134 4279630765
2.8429999 0.192 -0.082999997 4279630765
2.8369999 0.19499999 -0.037999999 4279630765
2.823 0.19599999 0.0060000001 4279630765
2.8139999 0.198 0.050999999 4279630765
2.8 0.2 0.094999999 4279630765
2.79 0.20200001 0.139 4279630765
2.858 0.213 -0.079000004 4279630765
2.852 0.215 -0.034000002 4279630765
2.846 0.21699999 0.0099999998 4279630765
2.826 0.21799999 0.055 4279630765
2.819 0.221 0.1 4279630765
2.8069999 0.222 0.14399999 4279630765
2.8789999 0.234 -0.075999998 4279630765
2.872 0.236 -0.029999999 4279630765
2.8599999 0.23800001 0.015 4279630765
2.852 0.23999999 0.059999999 4279630765
2.829 0.241 0.105 4279630765
2.822 0.243 0.149 4279630765
2.8940001 0.255 -0.071000002 4279630765
2.888 0.257 -0.025 4279630765
2.8759999 0.259 0.02 4279630765
2.865 0.26100001 0.064999998 4279630765
2.8510001 0.26199999 0.11 4279630765
2.8469999 0.26499999 0.156 4279630765
2.918 0.278 -0.067000002 4279630765
2.914 0.28 -0.02 4279630765
2.9000001 0.28099999 0.025 4279630765
2.8870001 0.28200001 0.071000002 4279630765
2.8640001 0.28299999 0.116 4279630765
2.858 0.285 0.161 4279630765
2.9419999 0.30000001 -0.061999999 4279630765
2.924 0.301 -0.015 4279630765
2.9119999 0.30199999 0.029999999 4279630765
2.898 0.303 0.075999998 4279630765
2.885 0.30399999 0.122 4279630765
2.8729999 0.30599999 0.167 4279630765
2.9530001 0.32100001 -0.057 4279630765
2.9449999 0.32300001 -0.0099999998 4279630765
2.925 0.32300001 0.035999998 4279630765
2.9159999 0.32499999 0.082000002 4279630765
2.905 0.32600001 0.12800001 4279630765
2.891 0.32800001 0.17399999 4279630765
2.9719999 0.34400001 -0.050999999 4279630765
2.9630001 0.345 -0.0040000002 4279630765
2.9460001 0.34599999 0.041999999 4279630765
2.9360001 0.347 0.089000002 4279630765
2.9119999 0.347 0.13500001 4279630765
2.8900001 0.347 0.18000001 4279630765
2.9890001 0.366 -0.046 4279630765
2.971 0.366 0.001 4279630765
2.941 0.36500001 0.048 4279630765
2.9119999 0.36399999 0.093999997 4279630765
2.885 0.36300001 0.139 4279630765
2.862 0.36300001 0.184 4279630765
2.974 0.384 -0.039000001 4279630765
2.9489999 0.38299999 0.0070000002 4279630765
2.918 0.382 0.054000001 4279630765
2.8889999 0.38100001 0.1 4279630765
2.8640001 0.38 0.145 4279630765
2.9400001 0.40000001 -0.032000002 4279630765
2.915 0.39899999 0.014 4279630765
2.6070001 -0.016000001 0.054000001 4279630765
2.6029999 -0.014 0.055 4279630765
2.582 -0.012 0.035999998 4279630765
2.5710001 -0.012 0.072999999 4279630765
2.6029999 -0.011 0.056000002 4279630765
2.6199999 -0.0089999996 -0.035999998 4279630765
2.592 -0.0080000004 0.037999999 4279630765
2.6140001 -0.0080000004 0.075999998 4279630765
2.6359999 -0.0060000001 -0.055 4279630765
2.605 -0.0060000001 0.057999998 4279630765
2.5680001 -0.0049999999 0.093999997 4279630765
2.645 -0.0040000002 -0.074000001 4279630765
2.631 -0.0040000002 -0.035 4279630765
2.6329999 -0.003 0.0020000001 4279630765
2.619 -0.003 0.039999999 4279630765
2.6570001 -0.001 -0.092 4279630765
2.648 -0.001 -0.052999999 4279630765
2.609 0 -0.015 4279630765
2.609 0 0.022 4279630765
2.6259999 0 0.059999999 4279630765
2.6500001 0.001 -0.11 4279630765
2.6659999 0.001 -0.071999997 4279630765
2.6470001 0.0020000001 -0.033 4279630765
2.631 0.003 0.041999999 4279630765
2.6199999 0.0040000002 0.079999998 4279630765
2.661 0.0040000002 -0.13 4279630765
2.675 0.0040000002 -0.090999998 4279630765
2.661 0.0049999999 -0.052000001 4279630765
2.6259999 0.0060000001 -0.013 4279630765
2.625 0.0070000002 0.024 4279630765
2.6270001 0.0070000002 0.061999999 4279630765
2.677 0.0070000002 -0.149 4279630765
2.6689999 0.0080000004 -0.109 4279630765
2.6730001 0.0089999996 -0.07 4279630765
2.6559999 0.0099999998 -0.030999999 4279630765
2.6340001 0.011 0.044 4279630765
2.684 0.011 -0.168 4279630765
2.6789999 0.012 -0.12800001 4279630765
2.6730001 0.013 -0.089000002 4279630765
2.674 0.014 -0.050000001 4279630765
2.6229999 0.014 -0.011 4279630765
2.6199999 0.015 0.026000001 4279630765
2.7019999 0.015 -0.18799999 4279630765
2.697 0.016000001 -0.148 4279630765
2.6889999 0.017000001 -0.108 4279630765
2.6700001 0.017999999 -0.068000004 4279630765
2.654 0.018999999 -0.028999999 4279630765
2.7119999 0.018999999 -0.207 4279630765
2.7160001 0.02 -0.167 4279630765
2.698 0.021 -0.127 4279630765
2.6889999 0.022 -0.086999997 4279630765
2.6670001 0.023 -0.046999998 4279630765
2.6210001 0.024 -0.0080000004 4279630765
2.7190001 0.023 -0.226 4279630765
2.727 0.024 -0.18700001 4279630765
2.72 0.026000001 -0.146 4279630765
2.6930001 0.027000001 -0.105 4279630765
2.6860001 0.028000001 -0.064999998 4279630765
2.655 0.028999999 -0.026000001 4279630765
2.6860001 0.027000001 -0.242 4279630765
2.7390001 0.028999999 -0.206 4279630765
2.7349999 0.030999999 -0.16599999 4279630765
2.721 0.032000002 -0.125 4279630765
2.6900001 0.033 -0.083999999 4279630765
2.6719999 0.035 -0.044 4279630765
2.74 0.034000002 -0.22499999 4279630765
2.7460001 0.035999998 -0.185 4279630765
2.7360001 0.037 -0.14399999 4279630765
2.72 0.039000001 -0.103 4279630765
2.688 0.039999999 -0.061999999 4279630765
2.6960001 0.039000001 -0.23999999 4279630765
2.76 0.041000001 -0.204 4279630765
2.747 0.043000001 -0.163 4279630765
2.733 0.044 -0.122 4279630765
2.72 0.046 -0.081 4279630765
2.7490001 0.046999998 -0.222 4279630765
2.756 0.048999999 -0.182 4279630765
2.743 0.050000001 -0.141 4279630765
2.7349999 0.052000001 -0.1 4279630765
2.704 0.052000001 -0.237 4279630765
2.7720001 0.055 -0.20200001 4279630765
2.756 0.057 -0.16 4279630765
2.7449999 0.057999998 -0.118 4279630765
2.7539999 0.061000001 -0.219 4279630765
2.77 0.063000001 -0.17900001 4279630765
2.763 0.064999998 -0.13699999 4279630765
2.71 0.066 -0.233 4279630765
2.7820001 0.07 -0.198 4279630765
2.77 0.071999997 -0.156 4279630765
2.75 0.075999998 -0.214 4279630765
2.789 0.079000004 -0.175 4279630765
2.7119999 0.081 -0.228 4279630765
2.7909999 0.086000003 -0.193 4279630765
2.7590001 0.092 -0.20900001 4279630765
2.7160001 0.097999997 -0.223 4279630765
2.9519999 0.40900001 -0.063000001 4279630765
2.9389999 0.40400001 -0.016000001 4279630765
2.911 0.398 0.029999999 4279630765
2.8959999 0.39399999 0.075999998 4279630765
2.984 0.39199999 -0.064000003 4279630765
2.9630001 0.38699999 -0.016000001 4279630765
2.938 0.38100001 0.029999999 4279630765
2.9189999 0.37599999 0.075999998 4279630765
2.895 0.37099999 0.122 4279630765
2.8729999 0.366 0.16599999 4279630765
3.0009999 0.373 -0.064999998 4279630765
2.9809999 0.368 -0.017000001 4279630765
2.964 0.36300001 0.028999999 4279630765
2.9460001 0.35800001 0.075999998 4279630765
2.921 0.35299999 0.122 4279630765
2.8929999 0.34799999 0.167 4279630765
2.9860001 0.34999999 -0.064999998 4279630765
2.9679999 0.345 -0.017999999 4279630765
2.951 0.34099999 0.028000001 4279630765
2.931 0.336 0.075000003 4279630765
2.915 0.33199999 0.12 4279630765
2.901 0.32800001 0.16599999 4279630765
2.9660001 0.32699999 -0.066 4279630765
2.951 0.322 -0.018999999 4279630765
2.9300001 0.31799999 0.027000001 4279630765
2.915 0.31299999 0.072999999 4279630765
2.895 0.30899999 0.118 4279630765
2.8740001 0.30399999 0.163 4279630765
2.948 0.30399999 -0.066 4279630765
2.9289999 0.30000001 -0.02 4279630765
2.911 0.29499999 0.025 4279630765
2.8970001 0.29100001 0.071000002 4279630765
2.8770001 0.28600001 0.116 4279630765
2.8610001 0.28200001 0.161 4279630765
2.9289999 0.28200001 -0.068000004 4279630765
2.9130001 0.278 -0.021 4279630765
2.9000001 0.27399999 0.024 4279630765
2.875 0.26899999 0.068999998 4279630765
2.8610001 0.26499999 0.113 4279630765
2.8369999 0.25999999 0.15700001 4279630765
2.901 0.259 -0.068999998 4279630765
2.8859999 0.255 -0.023 4279630765
2.8729999 0.25099999 0.021 4279630765
2.8599999 0.24699999 0.066 4279630765
2.836 0.242 0.111 4279630765
2.8199999 0.23800001 0.154 4279630765
2.885 0.237 -0.07 4279630765
2.8759999 0.234 -0.025 4279630765
2.852 0.229 0.018999999 4279630765
2.832 0.22499999 0.064000003 4279630765
2.8180001 0.221 0.108 4279630765
2.803 0.21699999 0.15099999 4279630765
2.8659999 0.21600001 -0.071999997 4279630765
2.852 0.212 -0.027000001 4279630765
2.836 0.208 0.017000001 4279630765
2.816 0.204 0.061000001 4279630765
2.8 0.2 0.104 4279630765
2.7839999 0.19599999 0.147 4279630765
2.8469999 0.19499999 -0.074000001 4279630765
2.8280001 0.19 -0.028999999 4279630765
2.8199999 0.18700001 0.014 4279630765
2.8 0.183 0.057999998 4279630765
2.78 0.17900001 0.101 4279630765
2.7690001 0.176 0.14399999 4279630765
2.829 0.17399999 -0.075999998 4279630765
2.8099999 0.17 -0.032000002 4279630765
2.799 0.16599999 0.011 4279630765
2.78 0.162 0.055 4279630765
2.77 0.15899999 0.097999997 4279630765
2.7509999 0.155 0.14 4279630765
2.8099999 0.154 -0.078000002 4279630765
2.7909999 0.149 -0.034000002 4279630765
2.776 0.146 0.0080000004 4279630765
2.7620001 0.142 0.050999999 4279630765
2.7509999 0.139 0.093999997 4279630765
2.7309999 0.13500001 0.13600001 4279630765
2.7820001 0.133 -0.081 4279630765
2.767 0.12899999 -0.037 4279630765
2.7639999 0.126 0.0049999999 4279630765
2.7409999 0.122 0.048 4279630765
2.7249999 0.119 0.090000004 4279630765
2.7090001 0.115 0.131 4279630765
2.773 0.113 -0.083999999 4279630765
2.763 0.11 -0.039999999 4279630765
2.744 0.106 0.0020000001 4279630765
2.727 0.103 0.044 4279630765
2.7090001 0.098999999 0.086000003 4279630765
2.6960001 0.096000001 0.127 4279630765
2.7550001 0.093999997 -0.086000003 4279630765
2.747 0.090000004 -0.044 4279630765
2.7130001 0.086000003 -0.001 4279630765
2.7090001 0.082999997 0.039999999 4279630765
2.6989999 0.079999998 0.082000002 4279630765
2.681 0.077 0.123 4279630765
2.744 0.075000003 -0.090000004 4279630765
2.7119999 0.071000002 -0.046999998 4279630765
2.675 0.067000002 -0.0049999999 4279630765
2.677 0.064000003 0.035999998 4279630765
2.6789999 0.061000001 0.077 4279630765
2.652 0.057999998 0.117 4279630765
2.707 0.055 -0.092 4279630765
2.6819999 0.052000001 -0.050000001 4279630765
2.6400001 0.048 -0.0089999996 4279630765
2.658 0.045000002 0.030999999 4279630765
2.654 0.041999999 0.071999997 4279630765
2.632 0.039000001 0.112 4279630765
2.698 0.037 -0.096000001 4279630765
2.661 0.033 -0.054000001 4279630765
2.6300001 0.029999999 -0.013 4279630765
2.6400001 0.027000001 0.027000001 4279630765
2.6389999 0.024 0.068000004 4279630765
2.6199999 0.021 0.108 4279630765
2.677 0.017999999 -0.1 4279630765
2.6700001 0.015 -0.057999998 4279630765
2.6340001 0.012 -0.017000001 4279630765
2.6259999 0.0089999996 0.023 4279630765
2.635 0.0060000001 0.063000001 4279630765
2.6070001 0 -0.101 4279630765
2.661 -0.0020000001 -0.063000001 4279630765
2.6259999 -0.0049999999 -0.021 4279630765
2.6110001 -0.0080000004 0.017999999 4279630765
2.6140001 -0.011 0.057999998 4279630765
2.652 -0.017000001 -0.108 4279630765
2.635 -0.02 -0.067000002 4279630765
2.612 -0.023 -0.026000001 4279630765
2.6159999 -0.026000001 0.013 4279630765
2.631 -0.034000002 -0.112 4279630765
2.625 -0.037 -0.071000002 4279630765
2.605 -0.039999999 -0.030999999 4279630765
2.6919999 0.072999999 -0.236 4279630765
2.733 0.071999997 -0.22 4279630765
2.776 0.071000002 -0.204 4279630765
2.7190001 0.068999998 -0.227 4279630765
2.7720001 0.068000004 -0.185 4279630765
2.7650001 0.067000002 -0.212 4279630765
2.7709999 0.066 -0.16500001 4279630765
2.7079999 0.064999998 -0.234 4279630765
2.773 0.064000003 -0.193 4279630765
2.7550001 0.061999999 -0.146 4279630765
2.753 0.061999999 -0.219 4279630765
2.7609999 0.061000001 -0.17299999 4279630765
2.7479999 0.059 -0.126 4279630765
2.6930001 0.059 -0.241 4279630765
2.777 0.059 -0.20100001 4279630765
2.753 0.057 -0.154 4279630765
2.737 0.055 -0.107 4279630765
2.7290001 0.056000002 -0.22499999 4279630765
2.757 0.055 -0.18099999 4279630765
2.7460001 0.052999999 -0.134 4279630765
2.7290001 0.050999999 -0.088 4279630765
2.7620001 0.052999999 -0.20900001 4279630765
2.747 0.050999999 -0.162 4279630765
2.7320001 0.048999999 -0.115 4279630765
2.7079999 0.046999998 -0.068999998 4279630765
2.7119999 0.048999999 -0.233 4279630765
2.7520001 0.048999999 -0.19 4279630765
2.74 0.046999998 -0.14300001 4279630765
2.7219999 0.045000002 -0.096000001 4279630765
2.6849999 0.043000001 -0.050000001 4279630765
2.7509999 0.045000002 -0.21699999 4279630765
2.7460001 0.044 -0.17 4279630765
2.727 0.041999999 -0.123 4279630765
2.6949999 0.039999999 -0.077 4279630765
2.665 0.037999999 -0.032000002 4279630765
2.6900001 0.041000001 -0.23899999 4279630765
2.74 0.041000001 -0.197 4279630765
2.7309999 0.039000001 -0.15099999 4279630765
2.704 0.037 -0.104 4279630765
2.687 0.035999998 -0.057999998 4279630765
2.6240001 0.034000002 -0.013 4279630765
2.733 0.037 -0.22400001 4279630765
2.7290001 0.035 -0.178 4279630765
2.7119999 0.034000002 -0.131 4279630765
2.6949999 0.032000002 -0.086000003 4279630765
2.674 0.030999999 -0.039999999 4279630765
2.6300001 0.028999999 0.003 4279630765
2.727 0.032000002 -0.206 4279630765
2.714 0.029999999 -0.15899999 4279630765
2.698 0.028999999 -0.113 4279630765
2.6819999 0.027000001 -0.067000002 4279630765
2.6429999 0.026000001 -0.022 4279630765
2.6240001 0.024 0.021 4279630765
2.7149999 0.026000001 -0.186 4279630765
2.6960001 0.025 -0.14 4279630765
2.6849999 0.023 -0.093999997 4279630765
2.671 0.022 -0.048999999 4279630765
2.6070001 0.02 -0.0040000002 4279630765
2.6329999 0.018999999 0.039000001 4279630765
2.701 0.02 -0.167 4279630765
2.677 0.018999999 -0.12 4279630765
2.6689999 0.017999999 -0.075000003 4279630765
2.654 0.016000001 -0.029999999 4279630765
2.615 0.015 0.013 4279630765
2.6370001 0.014 0.057 4279630765
2.6789999 0.014 -0.148 4279630765
2.668 0.013 -0.102 4279630765
2.668 0.012 -0.057999998 4279630765
2.625 0.011 -0.013 4279630765
2.631 0.0099999998 0.029999999 4279630765
2.6270001 0.0089999996 0.074000001 4279630765
2.6619999 0.0080000004 -0.12899999 4279630765
2.6670001 0.0070000002 -0.085000001 4279630765
2.655 0.0060000001 -0.039000001 4279630765
2.612 0.0049999999 0.0040000002 4279630765
2.628 0.0040000002 0.048 4279630765
2.615 0.003 0.092 4279630765
2.6300001 0.0020000001 -0.11 4279630765
2.6589999 0.001 -0.067000002 4279630765
2.6270001 0 -0.022 4279630765
2.6110001 0 0.021 4279630765
2.658 -0.003 -0.093999997 4279630765
2.6400001 -0.0040000002 -0.048999999 4279630765
2.6129999 -0.0060000001 0.037999999 4279630765
2.576 -0.0070000002 0.081 4279630765
2.642 -0.0099999998 -0.075999998 4279630765
2.619 -0.011 -0.030999999 4279630765
2.6170001 -0.012 0.056000002 4279630765
2.6129999 -0.016000001 -0.057999998 4279630765
2.6099999 -0.017999999 0.028999999 4279630765
2.6059999 -0.023 -0.041000001 4279630765
2.6010001 -0.029999999 -0.024 4279630765
2.6429999 -0.048999999 -0.125 4279630765
2.6199999 -0.046 -0.081 4279630765
2.6240001 -0.032000002 -0.117 4279630765
2.619 -0.028999999 -0.074000001 4279630765
2.6110001 -0.026000001 -0.032000002 4279630765
2.6070001 -0.023 0.0099999998 4279630765
2.6459999 -0.015 -0.11 4279630765
2.638 -0.012 -0.067000002 4279630765
2.6229999 -0.0089999996 -0.024 4279630765
2.6040001 -0.0060000001 0.017000001 4279630765
2.6210001 -0.0040000002 0.059 4279630765
2.6570001 0.0040000002 -0.059999999 4279630765
2.625 0.0070000002 -0.017000001 4279630765
2.6210001 0.0089999996 0.024 4279630765
2.628 0.012 0.067000002 4279630765
2.608 0.015 0.109 4279630765
2.671 0.017999999 -0.096000001 4279630765
2.6670001 0.021 -0.052000001 4279630765
2.609 0.023 -0.0089999996 4279630765
2.641 0.026000001 0.032000002 4279630765
2.6429999 0.028999999 0.075000003 4279630765
2.6210001 0.030999999 0.117 4279630765
2.688 0.035 -0.088 4279630765
2.677 0.037999999 -0.045000002 4279630765
2.658 0.043000001 0.039999999 4279630765
2.6359999 0.045000002 0.082999997 4279630765
2.638 0.048 0.125 4279630765
2.7019999 0.052999999 -0.079999998 4279630765
2.687 0.055 -0.035999998 4279630765
2.655 0.057 0.0060000001 4279630765
2.6730001 0.059999999 0.048999999 4279630765
2.6719999 0.063000001 0.092 4279630765
2.661 0.064999998 0.134 4279630765
2.721 0.07 -0.071999997 4279630765
2.707 0.072999999 -0.028000001 4279630765
2.698 0.075000003 0.014 4279630765
2.6989999 0.078000002 0.057999998 4279630765
2.6889999 0.079999998 0.101 4279630765
2.6689999 0.082000002 0.14300001 4279630765
2.737 0.088 -0.064000003 4279630765
2.7279999 0.090000004 -0.02 4279630765
2.724 0.093000002 0.023 4279630765
2.7160001 0.094999999 0.067000002 4279630765
2.6930001 0.097000003 0.11 4279630765
2.684 0.098999999 0.153 4279630765
2.757 0.106 -0.055 4279630765
2.7420001 0.108 -0.011 4279630765
2.7379999 0.11 0.033 4279630765
2.7190001 0.112 0.075999998 4279630765
2.71 0.114 0.12 4279630765
2.7060001 0.117 0.163 4279630765
2.7650001 0.123 -0.046 4279630765
2.7520001 0.125 -0.001 4279630765
2.7490001 0.127 0.041999999 4279630765
2.734 0.12899999 0.086000003 4279630765
2.7279999 0.132 0.13 4279630765
2.7179999 0.134 0.17299999 4279630765
2.7739999 0.14 -0.035999998 4279630765
2.7709999 0.14300001 0.0070000002 4279630765
2.766 0.145 0.052000001 4279630765
2.753 0.147 0.096000001 4279630765
2.734 0.149 0.139 4279630765
2.733 0.15099999 0.183 4279630765
2.7950001 0.15800001 -0.027000001 4279630765
2.7869999 0.16 0.017000001 4279630765
2.7739999 0.162 0.061999999 4279630765
2.7679999 0.16500001 0.106 4279630765
2.7550001 0.167 0.15000001 4279630765
2.7479999 0.169 0.19400001 4279630765
2.812 0.176 -0.017000001 4279630765
2.802 0.178 0.027000001 4279630765
2.793 0.18000001 0.071999997 4279630765
2.777 0.182 0.116 4279630765
2.7690001 0.184 0.161 4279630765
2.7609999 0.186 0.205 4279630765
2.8210001 0.19400001 -0.0060000001 4279630765
2.8199999 0.19599999 0.037999999 4279630765
2.8069999 0.198 0.082999997 4279630765
2.7920001 0.2 0.127 4279630765
2.7739999 0.20100001 0.171 4279630765
2.766 0.20299999 0.215 4279630765
2.8369999 0.212 0.003 4279630765
2.823 0.213 0.048 4279630765
2.813 0.215 0.093000002 4279630765
2.8069999 0.21699999 0.138 4279630765
2.7909999 0.219 0.183 4279630765
2.779 0.221 0.227 4279630765
2.855 0.23 0.014 4279630765
2.8369999 0.23100001 0.059 4279630765
2.8269999 0.233 0.105 4279630765
2.8180001 0.235 0.15000001 4279630765
2.802 0.236 0.19400001 4279630765
2.7939999 0.23800001 0.23899999 4279630765
2.8640001 0.24699999 0.025 4279630765
2.8510001 0.249 0.071000002 4279630765
2.8399999 0.25 0.116 4279630765
2.8280001 0.252 0.161 4279630765
2.8169999 0.25400001 0.206 4279630765
2.8050001 0.25600001 0.25099999 4279630765
2.8729999 0.26499999 0.037 4279630765
2.859 0.266 0.082000002 4279630765
2.849 0.26800001 0.12800001 4279630765
2.836 0.26899999 0.17299999 4279630765
2.825 0.271 0.21799999 4279630765
2.8150001 0.273 0.26300001 4279630765
2.8859999 0.28299999 0.048999999 4279630765
2.8710001 0.28400001 0.093999997 4279630765
2.865 0.28600001 0.14 4279630765
2.8529999 0.28799999 0.186 4279630765
2.835 0.289 0.23 4279630765
2.8269999 0.29100001 0.27599999 4279630765
2.902 0.301 0.061000001 4279630765
2.8870001 0.30199999 0.107 4279630765
2.8729999 0.303 0.153 4279630765
2.862 0.30500001 0.198 4279630765
2.8529999 0.30700001 0.244 4279630765
2.8369999 0.308 0.289 4279630765
2.9089999 0.31799999 0.072999999 4279630765
2.9059999 0.32100001 0.12 4279630765
2.892 0.322 0.16599999 4279630765
2.875 0.32300001 0.211 4279630765
2.8610001 0.324 0.257 4279630765
2.842 0.32499999 0.301 4279630765
2.9219999 0.336 0.086000003 4279630765
2.9159999 0.338 0.133 4279630765
2.901 0.33899999 0.17900001 4279630765
2.872 0.33899999 0.223 4279630765
2.839 0.338 0.26699999 4279630765
2.8099999 0.338 0.31 4279630765
2.9289999 0.35299999 0.098999999 4279630765
2.898 0.352 0.14399999 4279630765
2.8770001 0.35299999 0.19 4279630765
2.8440001 0.352 0.234 4279630765
2.813 0.35100001 0.27700001 4279630765
2.895 0.366 0.111 4279630765
2.8800001 0.366 0.156 4279630765
2.8410001 0.36399999 0.2 4279630765
2.8269999 0.36500001 0.245 4279630765
2.8729999 0.37900001 0.123 4279630765
2.599 -0.035 -0.030999999 4279630765
2.6099999 -0.025 0.027000001 4279630765
2.6259999 -0.018999999 -0.064999998 4279630765
2.612 -0.015 0.048999999 4279630765
2.6329999 -0.011 -0.082000002 4279630765
2.625 -0.0089999996 -0.043000001 4279630765
2.6059999 -0.0060000001 0.033 4279630765
2.6059999 -0.0049999999 0.071000002 4279630765
2.6530001 -0.0020000001 -0.098999999 4279630765
2.6530001 -0.001 -0.059999999 4279630765
2.6210001 0 -0.021 4279630765
2.596 0.001 0.016000001 4279630765
2.6229999 0.003 0.055 4279630765
2.609 0.0040000002 0.093000002 4279630765
2.6589999 0.0060000001 -0.115 4279630765
2.6619999 0.0070000002 -0.077 4279630765
2.6470001 0.0089999996 -0.037 4279630765
2.6099999 0.0099999998 0.001 4279630765
2.6270001 0.012 0.039000001 4279630765
2.625 0.014 0.078000002 4279630765
2.6689999 0.015 -0.132 4279630765
2.678 0.016000001 -0.093000002 4279630765
2.6719999 0.017999999 -0.054000001 4279630765
2.6259999 0.018999999 -0.014 4279630765
2.6159999 0.021 0.024 4279630765
2.6300001 0.023 0.063000001 4279630765
2.6949999 0.024 -0.15000001 4279630765
2.6730001 0.026000001 -0.109 4279630765
2.6800001 0.028000001 -0.07 4279630765
2.6559999 0.028999999 -0.029999999 4279630765
2.6329999 0.030999999 0.0080000004 4279630765
2.6389999 0.032000002 0.046999998 4279630765
2.711 0.034000002 -0.167 4279630765
2.698 0.035999998 -0.126 4279630765
2.6960001 0.037 -0.086000003 4279630765
2.6860001 0.039000001 -0.046 4279630765
2.6270001 0.039999999 -0.0060000001 4279630765
2.6489999 0.041999999 0.032000002 4279630765
2.7349999 0.044 -0.185 4279630765
2.7090001 0.046 -0.14300001 4279630765
2.71 0.048 -0.103 4279630765
2.704 0.048999999 -0.063000001 4279630765
2.681 0.050999999 -0.022 4279630765
2.652 0.052000001 0.016000001 4279630765
2.75 0.055 -0.20299999 4279630765
2.74 0.056000002 -0.161 4279630765
2.723 0.057999998 -0.12 4279630765
2.7190001 0.059999999 -0.079000004 4279630765
2.7030001 0.061999999 -0.037999999 4279630765
2.677 0.063000001 0.001 4279630765
2.7379999 0.064999998 -0.21799999 4279630765
2.76 0.067000002 -0.17900001 4279630765
2.753 0.068999998 -0.13699999 4279630765
2.73 0.071000002 -0.094999999 4279630765
