# .PCD v0.7 - Point Cloud Data file format
VERSION 0.7
FIELDS x y z rgb
SIZE 4 4 4 4
TYPE F F F U
COUNT 1 1 1 1
WIDTH 1275
HEIGHT 1
VIEWPOINT 0 0 0 1 0 0 0
POINTS 1275
DATA ascii
3.299 0.54699999 2.2709999 4293379707
3.1340001 0.52499998 2.2650001 4293379707
3.776 0.588 2.2479999 4293379707
3.6199999 0.56699997 2.26 4293379707
3.4560001 0.546 2.263 4293379707
3.289 0.52399999 2.26 4293379707
3.1270001 0.50300002 2.256 4293379707
3.7750001 0.56599998 2.243 4293379707
3.6199999 0.546 2.2550001 4293379707
3.448 0.52399999 2.253 4293379707
3.2920001 0.50400001 2.257 4293379707
3.1270001 0.48300001 2.25 4293379707
3.776 0.54400003 2.237 4293379707
3.6140001 0.523 2.2449999 4293379707
3.447 0.50199997 2.2460001 4293379707
3.2909999 0.48199999 2.25 4293379707
3.1340001 0.463 2.2490001 4293379707
3.786 0.523 2.237 4293379707
3.6229999 0.50300002 2.244 4293379707
3.4530001 0.48100001 2.243 4293379707
3.299 0.46200001 2.2479999 4293379707
3.1500001 0.44499999 2.253 4293379707
3.8050001 0.50400001 2.2409999 4293379707
3.631 0.48199999 2.2420001 4293379707
3.471 0.463 2.247 4293379707
3.3139999 0.44400001 2.25 4293379707
3.177 0.428 2.2639999 4293379707
3.8310001 0.48500001 2.2479999 4293379707
3.6559999 0.463 2.2490001 4293379707
3.5009999 0.44499999 2.2579999 4293379707
3.3429999 0.426 2.2609999 4293379707
3.2079999 0.41100001 2.276 4293379707
3.8659999 0.46700001 2.26 4293379707
3.6860001 0.44600001 2.2579999 4293379707
3.539 0.42899999 2.273 4293379707
3.3859999 0.41100001 2.28 4293379707
3.2460001 0.39500001 2.293 4293379707
3.895 0.44800001 2.266 4293379707
3.7160001 0.42699999 2.266 4293379707
3.5699999 0.41100001 2.2820001 4293379707
3.414 0.39300001 2.2880001 4293379707
3.2509999 0.37400001 2.2850001 4293379707
3.8870001 0.42500001 2.2509999 4293379707
3.723 0.40599999 2.26 4293379707
3.576 0.38999999 2.2750001 4293379707
3.4070001 0.37099999 2.2709999 4293379707
3.243 0.35299999 2.2679999 4293379707
3.8859999 0.403 2.2390001 4293379707
3.72 0.384 2.2460001 4293379707
3.5680001 0.36700001 2.257 4293379707
3.405 0.34900001 2.2579999 4293379707
3.234 0.331 2.2490001 4293379707
3.8789999 0.38 2.2219999 4293379707
3.7190001 0.36300001 2.233 4293379707
3.5599999 0.34599999 2.2390001 4293379707
3.392 0.32800001 2.2360001 4293379707
3.2379999 0.31200001 2.2379999 4293379707
3.885 0.359 2.2130001 4293379707
3.7260001 0.34200001 2.223 4293379707
3.5610001 0.32499999 2.2260001 4293379707
3.3970001 0.30700001 2.2249999 4293379707
3.2490001 0.292 2.23 4293379707
3.9059999 0.33899999 2.211 4293379707
3.7679999 0.324 2.234 4293379707
3.5929999 0.30599999 2.2309999 4293379707
3.441 0.29100001 2.2390001 4293379707
3.2950001 0.27599999 2.247 4293379707
3.174 0.264 2.2690001 4293379707
3.9230001 0.31900001 2.2049999 4293379707
3.8210001 0.308 2.25 4293379707
3.6470001 0.28999999 2.25 4293379707
3.5039999 0.27500001 2.2639999 4293379707
3.3540001 0.26100001 2.27 4293379707
3.2179999 0.24699999 2.283 4293379707
3.9590001 0.301 2.21 4293379707
3.8529999 0.289 2.253 4293379707
3.6919999 0.273 2.26 4293379707
3.54 0.25799999 2.27 4293379707
3.3729999 0.242 2.267 4293379707
3.2190001 0.228 2.267 4293379707
3.984 0.28200001 2.207 4293379707
3.846 0.26699999 2.2320001 4293379707
3.6849999 0.252 2.2390001 4293379707
3.5339999 0.237 2.25 4293379707
3.3659999 0.222 2.244 4293379707
3.2049999 0.207 2.2390001 4293379707
3.9990001 0.26199999 2.1989999 4293379707
3.849 0.24699999 2.2160001 4293379707
3.684 0.23199999 2.221 4293379707
3.53 0.21699999 2.2290001 4293379707
3.3629999 0.20299999 2.223 4293379707
3.2119999 0.189 2.2249999 4293379707
4.0349998 0.243 2.2 4293379707
3.855 0.227 2.2019999 4293379707
3.7030001 0.213 2.214 4293379707
3.543 0.199 2.2179999 4293379707
3.3929999 0.185 2.224 4293379707
3.2460001 0.17200001 2.2290001 4293379707
3.8829999 0.20900001 2.1989999 4293379707
3.609 0.183 2.24 4293379707
3.4679999 0.17 2.253 4293379707
3.322 0.15800001 2.26 4293379707
3.665 0.167 2.2539999 4293379707
3.51 0.154 2.26 4293379707
3.3410001 0.14 2.2520001 4293379707
3.6630001 0.147 2.2320001 4293379707
3.503 0.13500001 2.234 4293379707
3.346 0.122 2.234 4293379707
3.661 0.12899999 2.2090001 4293379707
3.5050001 0.117 2.2130001 4293379707
3.3510001 0.105 2.2149999 4293379707
3.5450001 0.1 2.2149999 4293379707
3.4170001 0.089000002 2.2349999 4293379707
3.4860001 0.072999999 2.2550001 4293379707
3.4860001 0.056000002 2.2309999 4293379707
3.4860001 0.039000001 2.2060001 4293379707
3.553 0.023 2.2219999 4293379707
3.8199999 0.69800001 2.247 4293379707
3.803 0.68699998 2.27 4293379707
3.779 0.67500001 2.2869999 4293379707
3.8529999 0.66399997 2.253 4293379707
3.6689999 0.64700001 2.2520001 4293379707
3.793 0.64499998 2.2479999 4293379707
3.642 0.63300002 2.2650001 4293379707
3.7880001 0.634 2.2750001 4293379707
3.6370001 0.62300003 2.2920001 4293379707
3.7390001 0.616 2.2739999 4293379707
3.832 0.60600001 2.2490001 4293379707
3.6459999 0.58999997 2.2460001 4293379707
3.4790001 0.57599998 2.2490001 4293379707
3.7750001 0.58600003 2.243 4293379707
3.618 0.574 2.256 4293379707
3.4590001 0.56199998 2.2639999 4293379707
3.776 0.574 2.2709999 4293379707
3.618 0.56300002 2.283 4293379707
3.4590001 0.551 2.2909999 4293379707
3.7460001 0.55699998 2.279 4293379707
3.5769999 0.54400003 2.2839999 4293379707
3.654 0.52999997 2.2479999 4293379707
3.487 0.51800001 2.2520001 4293379707
3.3210001 0.50599998 2.2509999 4293379707
3.9419999 0.53500003 2.227 4293379707
3.773 0.523 2.2360001 4293379707
3.6059999 0.51099998 2.243 4293379707
3.444 0.49900001 2.2479999 4293379707
3.289 0.48899999 2.2539999 4293379707
3.911 0.51700002 2.233 4293379707
3.756 0.50599998 2.25 4293379707
3.599 0.49599999 2.2620001 4293379707
3.4400001 0.48500001 2.2690001 4293379707
3.283 0.47499999 2.2739999 4293379707
3.911 0.50199997 2.2550001 4293379707
3.7509999 0.49200001 2.2690001 4293379707
3.598 0.48199999 2.2850001 4293379707
3.438 0.47099999 2.2909999 4293379707
3.279 0.461 2.2950001 4293379707
3.8959999 0.48500001 2.2690001 4293379707
3.7179999 0.47299999 2.2720001 4293379707
3.5539999 0.46200001 2.279 4293379707
3.3800001 0.449 2.2750001 4293379707
3.2260001 0.44 2.2809999 4293379707
3.8239999 0.461 2.2479999 4293379707
3.6270001 0.44600001 2.2379999 4293379707
3.471 0.43599999 2.247 4293379707
3.3069999 0.426 2.2479999 4293379707
3.1659999 0.41800001 2.26 4293379707
3.9360001 0.44999999 2.2260001 4293379707
3.7590001 0.43799999 2.23 4293379707
3.5969999 0.42699999 2.2390001 4293379707
3.427 0.41600001 2.2390001 4293379707
3.2690001 0.40599999 2.2420001 4293379707
3.895 0.428 2.2219999 4293379707
3.733 0.41800001 2.2349999 4293379707
3.576 0.40900001 2.2460001 4293379707
3.414 0.39899999 2.25 4293379707
3.2590001 0.38999999 2.2550001 4293379707
3.8840001 0.41100001 2.234 4293379707
3.724 0.40099999 2.2479999 4293379707
3.5780001 0.39300001 2.266 4293379707
3.4089999 0.38299999 2.266 4293379707
3.2520001 0.37400001 2.27 4293379707
3.878 0.39300001 2.25 4293379707
3.723 0.384 2.266 4293379707
3.5669999 0.375 2.277 4293379707
3.4070001 0.366 2.283 4293379707
3.2460001 0.35699999 2.2839999 4293379707
3.865 0.37400001 2.2590001 4293379707
3.684 0.36300001 2.2590001 4293379707
3.5309999 0.35499999 2.2720001 4293379707
3.3729999 0.34599999 2.277 4293379707
3.223 0.33899999 2.2850001 4293379707
3.8080001 0.35100001 2.2420001 4293379707
3.6270001 0.34099999 2.2409999 4293379707
3.467 0.33199999 2.247 4293379707
3.303 0.32300001 2.247 4293379707
3.75 0.32800001 2.223 4293379707
3.582 0.31900001 2.2279999 4293379707
3.421 0.31099999 2.233 4293379707
3.2620001 0.30199999 2.234 4293379707
3.7119999 0.308 2.2149999 4293379707
3.559 0.30000001 2.2279999 4293379707
3.392 0.29100001 2.2279999 4293379707
3.237 0.28299999 2.2309999 4293379707
3.7060001 0.289 2.2249999 4293379707
3.5469999 0.28099999 2.234 4293379707
3.382 0.273 2.234 4293379707
3.2279999 0.26499999 2.2390001 4293379707
3.694 0.27000001 2.23 4293379707
3.54 0.26199999 2.2420001 4293379707
3.3759999 0.25400001 2.243 4293379707
3.22 0.24699999 2.2460001 4293379707
3.6860001 0.25 2.2379999 4293379707
3.5369999 0.244 2.2520001 4293379707
3.3740001 0.236 2.2539999 4293379707
3.217 0.229 2.256 4293379707
3.684 0.23100001 2.247 4293379707
3.53 0.22499999 2.2590001 4293379707
3.369 0.21699999 2.2620001 4293379707
3.2119999 0.211 2.2639999 4293379707
3.678 0.212 2.2539999 4293379707
3.5220001 0.205 2.263 4293379707
3.3659999 0.199 2.27 4293379707
3.2060001 0.192 2.2690001 4293379707
3.658 0.192 2.2509999 4293379707
3.51 0.186 2.2650001 4293379707
3.3510001 0.17900001 2.2690001 4293379707
3.201 0.17299999 2.2750001 4293379707
3.6289999 0.17 2.2420001 4293379707
3.4860001 0.16500001 2.2579999 4293379707
3.335 0.16 2.266 4293379707
3.194 0.155 2.2780001 4293379707
3.6010001 0.15000001 2.2320001 4293379707
3.461 0.145 2.2490001 4293379707
3.3069999 0.14 2.2550001 4293379707
3.184 0.13500001 2.279 4293379707
3.5780001 0.13 2.224 4293379707
3.4389999 0.125 2.2409999 4293379707
3.2909999 0.12 2.25 4293379707
3.1659999 0.116 2.273 4293379707
3.562 0.11 2.2190001 4293379707
3.4189999 0.105 2.234 4293379707
3.2709999 0.1 2.2420001 4293379707
3.1530001 0.096000001 2.2679999 4293379707
3.5420001 0.090000004 2.211 4293379707
3.4000001 0.085000001 2.2260001 4293379707
3.26 0.081 2.2390001 4293379707
3.135 0.077 2.26 4293379707
3.5339999 0.07 2.21 4293379707
3.388 0.066 2.2219999 4293379707
3.247 0.061000001 2.233 4293379707
3.1199999 0.057999998 2.2520001 4293379707
3.52 0.050000001 2.204 4293379707
3.381 0.046 2.22 4293379707
3.237 0.041999999 2.2290001 4293379707
3.1170001 0.039000001 2.253 4293379707
3.517 0.029999999 2.204 4293379707
3.3770001 0.027000001 2.2190001 4293379707
3.2360001 0.023 2.23 4293379707
3.1129999 0.02 2.2509999 4293379707
3.5150001 0.011 2.204 4293379707
3.3800001 0.0070000002 2.2219999 4293379707
3.2390001 0.0040000002 2.233 4293379707
3.118 0.001 2.256 4293379707
3.517 -0.0080000004 2.2049999 4293379707
3.3800001 -0.011 2.2219999 4293379707
3.243 -0.014 2.2349999 4293379707
3.118 -0.017999999 2.2550001 4293379707
3.5179999 -0.028000001 2.2049999 4293379707
3.3829999 -0.030999999 2.223 4293379707
3.2449999 -0.034000002 2.2349999 4293379707
3.131 -0.037 2.263 4293379707
3.526 -0.048 2.2079999 4293379707
3.391 -0.050000001 2.2260001 4293379707
3.253 -0.052999999 2.2390001 4293379707
3.132 -0.056000002 2.2620001 4293379707
3.5380001 -0.067000002 2.214 4293379707
3.402 -0.07 2.23 4293379707
3.266 -0.071999997 2.2449999 4293379707
3.1329999 -0.075000003 2.2590001 4293379707
3.55 -0.086999997 2.217 4293379707
3.4200001 -0.090000004 2.2390001 4293379707
3.277 -0.092 2.2490001 4293379707
3.1329999 -0.093999997 2.2550001 4293379707
3.5680001 -0.107 2.224 4293379707
3.428 -0.109 2.2390001 4293379707
3.276 -0.111 2.243 4293379707
3.122 -0.112 2.2420001 4293379707
3.582 -0.127 2.2279999 4293379707
3.428 -0.12800001 2.233 4293379707
3.273 -0.13 2.2349999 4293379707
3.1240001 -0.131 2.237 4293379707
3.5840001 -0.146 2.223 4293379707
3.4289999 -0.147 2.2279999 4293379707
3.27 -0.148 2.227 4293379707
3.1129999 -0.149 2.223 4293379707
3.5799999 -0.16599999 2.2130001 4293379707
3.425 -0.16599999 2.2179999 4293379707
3.2650001 -0.16599999 2.2149999 4293379707
3.1110001 -0.16599999 2.2130001 4293379707
3.5710001 -0.184 2.2 4293379707
3.418 -0.184 2.2049999 4293379707
3.2579999 -0.184 2.2019999 4293379707
3.1070001 -0.184 2.201 4293379707
3.5699999 -0.20299999 2.1900001 4293379707
3.415 -0.20299999 2.194 4293379707
3.256 -0.20200001 2.1919999 4293379707
3.108 -0.20200001 2.1919999 4293379707
3.566 -0.221 2.178 4293379707
3.418 -0.221 2.1860001 4293379707
3.266 -0.22 2.188 4293379707
3.1270001 -0.221 2.1949999 4293379707
3.579 -0.23999999 2.175 4293379707
3.431 -0.23999999 2.184 4293379707
3.29 -0.23999999 2.1930001 4293379707
3.1619999 -0.241 2.2079999 4293379707
3.618 -0.26100001 2.188 4293379707
3.461 -0.25999999 2.191 4293379707
3.6589999 -0.28200001 2.2 4293379707
3.7 -0.303 2.211 4293379707
3.701 -0.32100001 2.198 4293379707
3.688 -0.338 2.175 4293379707
3.6900001 -0.35499999 2.161 4293379707
3.707 -0.373 2.155 4293379707
3.7309999 -0.39199999 2.151 4293379707
3.6530001 -0.396 2.204 4293379707
3.7880001 -0.414 2.1659999 4293379707
3.6700001 -0.414 2.1949999 4293379707
3.8039999 -0.43200001 2.1570001 4293379707
3.664 -0.42899999 2.1730001 4293379707
3.8239999 -0.449 2.1489999 4293379707
3.6730001 -0.44499999 2.158 4293379707
3.8670001 -0.46900001 2.152 4293379707
3.6919999 -0.46200001 2.1500001 4293379707
3.951 -0.49399999 2.178 4293379707
3.7349999 -0.48100001 2.1530001 4293379707
3.6530001 -0.48500001 2.2019999 4293379707
3.9590001 -0.50999999 2.161 4293379707
3.7809999 -0.50199997 2.158 4293379707
3.6489999 -0.49900001 2.177 4293379707
3.96 -0.52499998 2.138 4293379707
3.7969999 -0.51700002 2.1440001 4293379707
3.648 -0.51200002 2.154 4293379707
3.6719999 -0.528 2.1440001 4293379707
3.5669999 -0.528 2.177 4293379707
4.0830002 -0.56900001 2.1559999 4293379707
3.9389999 -0.56300002 2.175 4293379707
3.724 -0.54799998 2.1500001 4293379707
3.6329999 -0.55000001 2.1919999 4293379707
4.0830002 -0.58099997 2.131 4293379707
3.941 -0.57599998 2.151 4293379707
3.7720001 -0.56699997 2.152 4293379707
3.631 -0.56199998 2.1659999 4293379707
4.118 -0.59899998 2.1240001 4293379707
3.9579999 -0.59100002 2.1340001 4293379707
3.7950001 -0.58200002 2.1389999 4293379707
3.6359999 -0.57300001 2.1429999 4293379707
4.04 -0.61500001 2.152 4293379707
3.888 -0.60699999 2.165 4293379707
3.675 -0.58999997 2.1389999 4293379707
3.5999999 -0.59500003 2.1889999 4293379707
4.0700002 -0.63 2.141 4293379707
3.928 -0.62400001 2.1589999 4293379707
3.7420001 -0.611 2.1500001 4293379707
3.618 -0.60699999 2.1719999 4293379707
4.0770001 -0.64200002 2.1170001 4293379707
3.9289999 -0.63499999 2.132 4293379707
3.7679999 -0.625 2.1370001 4293379707
3.619 -0.61699998 2.1440001 4293379707
4.0079999 -0.65700001 2.1470001 4293379707
3.849 -0.648 2.154 4293379707
3.6500001 -0.63099998 2.1340001 4293379707
3.569 -0.634 2.1789999 4293379707
4.0580001 -0.67500001 2.1440001 4293379707
3.905 -0.66600001 2.1559999 4293379707
3.72 -0.65100002 2.145 4293379707
3.609 -0.64899999 2.174 4293379707
4.0599999 -0.68400002 2.115 4293379707
3.9070001 -0.67500001 2.1259999 4293379707
3.7509999 -0.66399997 2.1329999 4293379707
3.6059999 -0.65600002 2.141 4293379707
3.9879999 -0.69700003 2.1400001 4293379707
3.8340001 -0.68699998 2.1489999 4293379707
3.642 -0.66900003 2.131 4293379707
4.0510001 -0.71499997 2.141 4293379707
3.895 -0.70499998 2.1500001 4293379707
3.7130001 -0.68900001 2.141 4293379707
4.059 -0.72299999 2.1140001 4293379707
3.8970001 -0.71100003 2.1199999 4293379707
3.75 -0.70200002 2.1300001 4293379707
3.9990001 -0.736 2.142 4293379707
3.8469999 -0.72500002 2.152 4293379707
4.0440001 -0.75 2.1329999 4293379707
3.891 -0.73799998 2.1429999 4293379707
4.0679998 -0.759 2.112 4293379707
3.905 -0.74599999 2.1170001 4293379707
4.0250001 -0.77200001 2.1459999 4293379707
4.0349998 -0.77700001 2.1170001 4293379707
3.6489999 1.587 -0.86000001 4281687631
3.677 1.586 -0.84200001 4281687631
3.7030001 1.5829999 -0.82300001 4281687631
3.6830001 1.571 -0.86299998 4281687631
3.7179999 1.576 -0.80299997 4281687631
3.724 1.574 -0.84799999 4281687631
3.74 1.571 -0.78299999 4281687631
3.7490001 1.5700001 -0.82999998 4281687631
3.757 1.563 -0.76300001 4281687631
3.723 1.553 -0.86900002 4281687631
3.7709999 1.563 -0.81 4281687631
3.779 1.557 -0.74299997 4281687631
3.7820001 1.561 -0.85699999 4281687631
3.79 1.554 -0.79000002 4281687631
3.803 1.551 -0.72399998 4281687631
3.8169999 1.558 -0.84100002 4281687631
3.816 1.548 -0.77100003 4281687631
3.822 1.5420001 -0.704 4281687631
3.7639999 1.529 -0.875 4281687631
3.839 1.549 -0.82099998 4281687631
3.8369999 1.54 -0.75099999 4281687631
3.848 1.536 -0.685 4281687631
3.8399999 1.541 -0.86799997 4281687631
3.8559999 1.538 -0.801 4281687631
3.8599999 1.531 -0.73199999 4281687631
3.8710001 1.528 -0.66500002 4281687631
3.8840001 1.54 -0.85299999 4281687631
3.882 1.53 -0.78200001 4281687631
3.888 1.524 -0.71399999 4281687631
3.8989999 1.52 -0.64600003 4281687631
3.789 1.493 -0.87800002 4281687631
3.9070001 1.53 -0.83399999 4281687631
3.911 1.522 -0.764 4281687631
3.911 1.5140001 -0.69400001 4281687631
4.0139999 1.546 -0.64200002 4281687631
3.895 1.515 -0.87800002 4281687631
3.9330001 1.52 -0.815 4281687631
3.937 1.513 -0.745 4281687631
3.9360001 1.5039999 -0.67500001 4281687631
3.9749999 1.512 -0.61199999 4281687631
3.9549999 1.518 -0.86699998 4281687631
3.96 1.51 -0.79699999 4281687631
3.9679999 1.5039999 -0.727 4281687631
3.967 1.4960001 -0.65700001 4281687631
3.9719999 1.492 -0.58899999 4281687631
3.816 1.454 -0.88300002 4281687631
3.984 1.507 -0.84899998 4281687631
3.9909999 1.501 -0.77899998 4281687631
3.9990001 1.4960001 -0.70999998 4281687631
4.0009999 1.489 -0.63999999 4281687631
4.0009999 1.482 -0.56999999 4281687631
4.0240002 1.501 -0.83399999 4281687631
4.0310001 1.495 -0.76300001 4281687631
4.0300002 1.4859999 -0.69199997 4281687631
4.0320001 1.48 -0.62199998 4281687631
4.0339999 1.474 -0.55199999 4281687631
4.0359998 1.493 -0.88499999 4281687631
4.053 1.49 -0.81599998 4281687631
4.059 1.483 -0.745 4281687631
4.0619998 1.477 -0.67400002 4281687631
4.0609999 1.469 -0.60299999 4281687631
4.066 1.465 -0.53399998 4281687631
4.0819998 1.487 -0.87099999 4281687631
4.0890002 1.48 -0.79900002 4281687631
4.0939999 1.474 -0.72799999 4281687631
4.1059999 1.471 -0.65899998 4281687631
4.0939999 1.459 -0.58600003 4281687631
4.1009998 1.456 -0.51599997 4281687631
4.1149998 1.476 -0.85399997 4281687631
4.1230001 1.469 -0.78299999 4281687631
4.125 1.462 -0.71100003 4281687631
4.1279998 1.449 -0.56800002 4281687631
4.1300001 1.444 -0.498 4281687631
4.1550002 1.466 -0.83899999 4281687631
4.1609998 1.46 -0.76700002 4281687631
4.1599998 1.451 -0.69400001 4281687631
4.165 1.4400001 -0.551 4281687631
4.1659999 1.4349999 -0.47999999 4281687631
4.1900001 1.455 -0.82300001 4281687631
4.1960001 1.448 -0.75 4281687631
4.197 1.441 -0.67699999 4281687631
4.1939998 1.433 -0.60399997 4281687631
4.1999998 1.429 -0.53399998 4281687631
4.1989999 1.423 -0.46200001 4281687631
4.2309999 1.444 -0.80800003 4281687631
4.224 1.433 -0.73299998 4281687631
4.2449999 1.433 -0.66299999 4281687631
4.2290001 1.421 -0.58700001 4281687631
4.2280002 1.415 -0.51499999 4281687631
4.2309999 1.411 -0.44400001 4281687631
4.2589998 1.429 -0.79100001 4281687631
4.2639999 1.423 -0.71700001 4281687631
4.2670002 1.41 -0.57099998 4281687631
4.2620001 1.402 -0.498 4281687631
4.2620001 1.397 -0.426 4281687631
4.3060002 1.419 -0.77600002 4281687631
4.3000002 1.409 -0.70099998 4281687631
4.309 1.405 -0.62800002 4281687631
4.3039999 1.397 -0.55400002 4281687631
4.3010001 1.39 -0.48100001 4281687631
4.3179998 1.391 -0.41 4281687631
4.335 1.403 -0.75999999 4281687631
4.3429999 1.398 -0.68599999 4281687631
4.3410001 1.39 -0.611 4281687631
4.355 1.388 -0.53899997 4281687631
4.342 1.3789999 -0.46399999 4281687631
4.3439999 1.375 -0.39199999 4281687631
4.3850002 1.393 -0.74599999 4281687631
4.382 1.3839999 -0.67000002 4281687631
4.3860002 1.3789999 -0.59600002 4281687631
4.3839998 1.372 -0.52100003 4281687631
4.3860002 1.367 -0.44800001 4281687631
4.382 1.3609999 -0.375 4281687631
4.4299998 1.38 -0.73199999 4281687631
4.4289999 1.3660001 -0.58099997 4281687631
4.4289999 1.36 -0.50599998 4281687631
4.4260001 1.354 -0.43099999 4281687631
4.4250002 1.349 -0.35800001 4281687631
4.4749999 1.367 -0.71799999 4281687631
4.474 1.353 -0.565 4281687631
4.473 1.347 -0.49000001 4281687631
4.467 1.335 -0.34099999 4281687631
4.5209999 1.334 -0.47400001 4281687631
4.5009999 1.335 -0.456 4281687631
4.4770002 1.362 -0.69599998 4281687631
4.4520001 1.353 -0.53399998 4281687631
4.4419999 1.35 -0.45500001 4281687631
4.4239998 1.381 -0.77200001 4281687631
4.415 1.376 -0.69099998 4281687631
4.4050002 1.372 -0.61000001 4281687631
4.3940001 1.368 -0.53100002 4281687631
4.388 1.367 -0.45300001 4281687631
4.362 1.395 -0.76599997 4281687631
4.3600001 1.393 -0.68699998 4281687631
4.3470001 1.387 -0.60699999 4281687631
4.3369999 1.383 -0.528 4281687631
4.3319998 1.381 -0.45100001 4281687631
4.3039999 1.41 -0.75999999 4281687631
4.302 1.4069999 -0.68199998 4281687631
4.289 1.401 -0.602 4281687631
4.2779999 1.396 -0.52399999 4281687631
4.2740002 1.395 -0.44800001 4281687631
4.2600002 1.432 -0.83499998 4281687631
4.2490001 1.425 -0.75400001 4281687631
4.2410002 1.42 -0.67500001 4281687631
4.2319999 1.415 -0.597 4281687631
4.2259998 1.4119999 -0.52100003 4281687631
4.2249999 1.411 -0.44600001 4281687631
4.211 1.448 -0.829 4281687631
4.198 1.441 -0.74800003 4281687631
4.198 1.438 -0.671 4281687631
4.1869998 1.432 -0.59299999 4281687631
4.1830001 1.429 -0.51800001 4281687631
4.1760001 1.426 -0.44299999 4281687631
4.1539998 1.462 -0.82099998 4281687631
4.152 1.457 -0.74299997 4281687631
4.1469998 1.4529999 -0.66600001 4281687631
4.1389999 1.448 -0.58899999 4281687631
4.1290002 1.442 -0.51300001 4281687631
4.0999999 1.475 -0.81199998 4281687631
4.098 1.47 -0.73500001 4281687631
4.1079998 1.471 -0.66100001 4281687631
4.085 1.46 -0.583 4281687631
4.079 1.456 -0.50800002 4281687631
4.0450001 1.487 -0.80400002 4281687631
4.0479999 1.484 -0.72799999 4281687631
4.0469999 1.48 -0.653 4281687631
4.0339999 1.473 -0.57700002 4281687631
3.9920001 1.499 -0.79400003 4281687631
3.9960001 1.4960001 -0.72000003 4281687631
3.993 1.492 -0.64499998 4281687631
3.9790001 1.484 -0.56999999 4281687631
3.947 1.5140001 -0.787 4281687631
3.947 1.5089999 -0.71200001 4281687631
3.9749999 1.516 -0.64300001 4281687631
3.934 1.498 -0.56400001 4281687631
3.901 1.527 -0.778 4281687631
3.8959999 1.521 -0.70300001 4281687631
3.9760001 1.548 -0.64300001 4281687631
3.8940001 1.513 -0.55800003 4281687631
3.845 1.536 -0.76700002 4281687631
3.8510001 1.534 -0.69499999 4281687631
3.9849999 1.5829999 -0.64399999 4281687631
3.8 1.549 -0.75800002 4281687631
3.799 1.543 -0.685 4281687631
3.9619999 1.605 -0.63999999 4281687631
3.7490001 1.558 -0.74699998 4281687631
3.7609999 1.557 -0.67699999 4281687631
3.7090001 1.571 -0.73799998 4281687631
3.668 1.5829999 -0.72799999 4281687631
3.6359999 1.598 -0.71899998 4281687631
3.6029999 1.612 -0.70999998 4281687631
3.563 1.623 -0.699 4281687631
3.539 1.641 -0.69099998 4281687631
3.4949999 1.648 -0.67799997 4281687631
3.448 1.653 -0.66500002 4281687631
3.1129999 -1.745 1.58 4286772515
3.1670001 -1.7539999 1.507 4286772515
3.0810001 -1.733 1.544 4286772515
3.2980001 -1.783 1.3940001 4286772515
3.221 -1.7640001 1.436 4286772515
3.138 -1.743 1.474 4286772515
3.0580001 -1.725 1.512 4286772515
3.3299999 -1.785 1.314 4286772515
3.2650001 -1.771 1.36 4286772515
3.188 -1.752 1.401 4286772515
3.1110001 -1.734 1.441 4286772515
3.0369999 -1.7180001 1.482 4286772515
3.3540001 -1.783 1.232 4286772515
3.3 -1.774 1.283 4286772515
3.2379999 -1.762 1.33 4286772515
3.165 -1.744 1.372 4286772515
3.0869999 -1.725 1.41 4286772515
3.0179999 -1.71 1.451 4286772515
3.325 -1.774 1.2029999 4286772515
3.2720001 -1.7640001 1.252 4286772515
3.2090001 -1.751 1.298 4286772515
3.1440001 -1.7359999 1.342 4286772515
3.069 -1.7180001 1.381 4286772515
3.0020001 -1.704 1.4220001 4286772515
3.302 -1.766 1.175 4286772515
3.2479999 -1.756 1.224 4286772515
3.191 -1.744 1.271 4286772515
3.122 -1.727 1.312 4286772515
3.0539999 -1.712 1.353 4286772515
2.9909999 -1.7 1.396 4286772515
3.2750001 -1.756 1.146 4286772515
3.224 -1.7460001 1.1950001 4286772515
3.1700001 -1.7359999 1.242 4286772515
3.1059999 -1.721 1.285 4286772515
3.0369999 -1.704 1.325 4286772515
2.98 -1.694 1.369 4286772515
3.2550001 -1.749 1.12 4286772515
3.207 -1.74 1.169 4286772515
3.1570001 -1.7309999 1.217 4286772515
3.095 -1.717 1.26 4286772515
3.0309999 -1.701 1.301 4286772515
2.9749999 -1.692 1.345 4286772515
3.243 -1.745 1.095 4286772515
3.1949999 -1.735 1.1440001 4286772515
3.1440001 -1.725 1.191 4286772515
3.0869999 -1.7130001 1.235 4286772515
3.029 -1.701 1.279 4286772515
2.97 -1.689 1.321 4286772515
3.2309999 -1.74 1.071 4286772515
3.1830001 -1.73 1.119 4286772515
3.1340001 -1.72 1.166 4286772515
3.0799999 -1.709 1.211 4286772515
3.0239999 -1.697 1.255 4286772515
2.9660001 -1.6849999 1.2970001 4286772515
3.22 -1.735 1.0470001 4286772515
3.1760001 -1.726 1.096 4286772515
3.132 -1.719 1.145 4286772515
3.079 -1.707 1.1900001 4286772515
3.023 -1.6950001 1.233 4286772515
2.967 -1.684 1.276 4286772515
3.2160001 -1.733 1.026 4286772515
3.174 -1.725 1.075 4286772515
3.131 -1.7180001 1.123 4286772515
3.082 -1.7079999 1.169 4286772515
3.0250001 -1.694 1.212 4286772515
2.974 -1.6849999 1.256 4286772515
3.2130001 -1.7309999 1.0039999 4286772515
3.1730001 -1.723 1.053 4286772515
3.1300001 -1.715 1.101 4286772515
3.0869999 -1.7079999 1.149 4286772515
3.029 -1.694 1.191 4286772515
2.9790001 -1.684 1.235 4286772515
3.2130001 -1.73 0.98299998 4286772515
3.1789999 -1.725 1.034 4286772515
3.131 -1.714 1.08 4286772515
3.092 -1.7079999 1.1289999 4286772515
3.0420001 -1.698 1.174 4286772515
2.9890001 -1.686 1.217 4286772515
3.2090001 -1.725 0.96100003 4286772515
3.178 -1.722 1.012 4286772515
3.1400001 -1.716 1.061 4286772515
3.0899999 -1.7029999 1.1059999 4286772515
3.0510001 -1.699 1.155 4286772515
2.9990001 -1.687 1.198 4286772515
3.2119999 -1.724 0.94099998 4286772515
3.1860001 -1.723 0.99299997 4286772515
3.148 -1.716 1.0420001 4286772515
3.1059999 -1.7079999 1.09 4286772515
3.066 -1.702 1.138 4286772515
3.0139999 -1.6900001 1.181 4286772515
3.22 -1.725 0.92199999 4286772515
3.194 -1.724 0.97399998 4286772515
3.1589999 -1.7180001 1.024 4286772515
3.1170001 -1.709 1.071 4286772515
3.079 -1.7029999 1.119 4286772515
3.0350001 -1.6950001 1.165 4286772515
3.227 -1.725 0.90200001 4286772515
3.2030001 -1.724 0.95499998 4286772515
3.174 -1.721 1.006 4286772515
3.1300001 -1.71 1.053 4286772515
3.0940001 -1.705 1.102 4286772515
3.053 -1.699 1.149 4286772515
3.2449999 -1.73 0.88599998 4286772515
3.2160001 -1.725 0.93699998 4286772515
3.1900001 -1.723 0.98900002 4286772515
3.152 -1.716 1.038 4286772515
3.1159999 -1.71 1.087 4286772515
3.0769999 -1.704 1.135 4286772515
3.256 -1.7309999 0.86699998 4286772515
3.227 -1.725 0.91799998 4286772515
3.2049999 -1.725 0.97100002 4286772515
3.175 -1.721 1.022 4286772515
3.1300001 -1.71 1.068 4286772515
3.0999999 -1.7079999 1.119 4286772515
3.2739999 -1.734 0.85000002 4286772515
3.253 -1.732 0.903 4286772515
3.2260001 -1.729 0.95499998 4286772515
3.197 -1.726 1.007 4286772515
3.1570001 -1.717 1.054 4286772515
3.1199999 -1.71 1.103 4286772515
3.2869999 -1.734 0.83099997 4286772515
3.277 -1.738 0.88800001 4286772515
3.2449999 -1.7309999 0.93800002 4286772515
3.2249999 -1.732 0.99199998 4286772515
3.1919999 -1.727 1.043 4286772515
3.154 -1.719 1.091 4286772515
3.309 -1.738 0.815 4286772515
3.3 -1.742 0.87099999 4286772515
3.277 -1.74 0.92400002 4286772515
3.256 -1.74 0.97799999 4286772515
3.221 -1.732 1.028 4286772515
3.198 -1.732 1.082 4286772515
3.3469999 -1.75 0.80199999 4286772515
3.3280001 -1.748 0.85600001 4286772515
3.306 -1.7460001 0.91000003 4286772515
3.2880001 -1.747 0.96499997 4286772515
3.257 -1.7410001 1.016 4286772515
3.2290001 -1.739 1.069 4286772515
3.372 -1.7539999 0.78600001 4286772515
3.3640001 -1.758 0.84299999 4286772515
3.345 -1.756 0.89700001 4286772515
3.3210001 -1.7539999 0.95099998 4286772515
3.2950001 -1.75 1.0039999 4286772515
3.273 -1.75 1.058 4286772515
3.408 -1.763 0.77200001 4286772515
3.3959999 -1.7640001 0.82800001 4286772515
3.3840001 -1.766 0.88499999 4286772515
3.359 -1.762 0.93800002 4286772515
3.3340001 -1.7589999 0.99199998 4286772515
3.3099999 -1.758 1.0470001 4286772515
3.441 -1.77 0.75700003 4286772515
3.4349999 -1.773 0.81400001 4286772515
3.4200001 -1.773 0.87099999 4286772515
3.4030001 -1.774 0.92699999 4286772515
3.3789999 -1.771 0.98100001 4286772515
3.3610001 -1.771 1.038 4286772515
3.4779999 -1.777 0.74199998 4286772515
3.473 -1.781 0.80000001 4286772515
3.4660001 -1.785 0.85900003 4286772515
3.5239999 -1.795 0.78899997 4286772515
3.2709999 -1.775 1.409 4286772515
3.332 -1.781 1.267 4286772515
3.2520001 -1.762 1.3150001 4286772515
3.1659999 -1.7410001 1.359 4286772515
3.302 -1.765 1.173 4286772515
3.227 -1.747 1.222 4286772515
3.1489999 -1.729 1.268 4286772515
3.0799999 -1.716 1.316 4286772515
3.335 -1.7640001 1.031 4286772515
3.28 -1.7539999 1.086 4286772515
3.2160001 -1.7410001 1.137 4286772515
3.1429999 -1.724 1.184 4286772515
3.0680001 -1.706 1.229 4286772515
3.0009999 -1.693 1.276 4286772515
3.24 -1.735 0.995 4286772515
3.1860001 -1.725 1.048 4286772515
3.118 -1.709 1.096 4286772515
3.059 -1.698 1.146 4286772515
2.9890001 -1.682 1.191 4286772515
3.158 -1.712 0.96399999 4286772515
3.102 -1.7 1.0140001 4286772515
3.5009999 -1.788 0.78899997 4286772515
3.4419999 -1.776 0.84600002 4286772515
3.3829999 -1.765 0.90100002 4286772515
3.381 -1.753 0.75800002 4286772515
3.3280001 -1.743 0.81300002 4286772515
3.2690001 -1.7309999 0.86699998 4286772515
4.9629998 0.56999999 -0.61299998 4291792374
4.9380002 0.58499998 -0.79500002 4291792374
4.9349999 0.58899999 -0.71399999 4291792374
4.9320002 0.59299999 -0.63300002 4291792374
4.9359999 0.611 -0.81900001 4291792374
4.9330001 0.61500001 -0.73699999 4291792374
4.9369998 0.62 -0.65700001 4291792374
4.947 0.62599999 -0.579 4291792374
4.927 0.63700002 -0.84200001 4291792374
4.9429998 0.64300001 -0.76200002 4291792374
4.928 0.64499998 -0.67900002 4291792374
4.941 0.65200001 -0.60000002 4291792374
4.9260001 0.66399997 -0.86500001 4291792374
4.9299998 0.66799998 -0.78399998 4291792374
4.927 0.67199999 -0.70200002 4291792374
4.947 0.68000001 -0.62400001 4291792374
4.928 0.69199997 -0.889 4291792374
4.9299998 0.69599998 -0.80599999 4291792374
4.9289999 0.69999999 -0.72500002 4291792374
4.9120002 0.70200002 -0.64099997 4291792374
4.927 0.72000003 -0.912 4291792374
4.9369998 0.72500002 -0.82999998 4291792374
4.9590001 0.73199999 -0.75099999 4291792374
4.915 0.73000002 -0.66399997 4291792374
4.9299998 0.74800003 -0.935 4291792374
4.9429998 0.75400001 -0.85399997 4291792374
4.9510002 0.75999999 -0.77200001 4291792374
4.9439998 0.76200002 -0.68900001 4291792374
4.9359999 0.778 -0.95899999 4291792374
4.9429998 0.78299999 -0.87599999 4291792374
4.9460001 0.787 -0.79299998 4291792374
4.9510002 0.792 -0.71100003 4291792374
4.9029999 0.80199999 -0.97399998 4291792374
4.9330001 0.81 -0.89600003 4291792374
4.9450002 0.81599998 -0.81400001 4291792374
4.9460001 0.81999999 -0.73100001 4291792374
4.9380002 0.84100002 -0.91799998 4291792374
4.947 0.84600002 -0.83600003 4291792374
4.9320002 0.847 -0.75 4291792374
4.9289999 0.86900002 -0.93800002 4291792374
4.9299998 0.87199998 -0.85299999 4291792374
4.9489999 0.88 -0.77200001 4291792374
4.9349999 0.89999998 -0.95999998 4291792374
4.994 0.91399997 -0.88499999 4291792374
4.948 0.90899998 -0.792 4291792374
4.9910002 0.94400001 -0.90499997 4291792374
4.9549999 0.94099998 -0.81300002 4291792374
4.9429998 0.96499997 -0.91500002 4291792374
4.9530001 0.97000003 -0.83099997 4291792374
4.9359999 0.995 -0.93300003 4291792374
4.9439998 1 -0.84899998 4291792374
4.9359999 1.026 -0.95200002 4291792374
4.9400001 1.03 -0.86699998 4291792374
4.9580002 1.0650001 -0.88700002 4291792374
4.9499998 0.56699997 -0.611 4291792374
4.9380002 0.597 -0.62699997 4291792374
4.941 0.62900001 -0.64399999 4291792374
4.994 0.63999999 -0.56999999 4291792374
4.9190001 0.65799999 -0.65799999 4291792374
4.9429998 0.66399997 -0.58099997 4291792374
4.9419999 0.69300002 -0.67799997 4291792374
4.9499998 0.69700003 -0.597 4291792374
4.9499998 0.727 -0.69499999 4291792374
4.9489999 0.73000002 -0.61299998 4291792374
4.948 0.759 -0.70999998 4291792374
4.954 0.76300001 -0.62900001 4291792374
4.9590001 0.79400003 -0.727 4291792374
4.9419999 0.79400003 -0.64300001 4291792374
4.9569998 0.79900002 -0.56300002 4291792374
4.9299998 0.82300001 -0.73799998 4291792374
4.9980001 0.83700001 -0.66500002 4291792374
4.96 0.833 -0.57700002 4291792374
4.9429998 0.85900003 -0.75400001 4291792374
4.9629998 0.86400002 -0.67400002 4291792374
4.9559999 0.866 -0.59100002 4291792374
4.9369998 0.89200002 -0.76800001 4291792374
4.9650002 0.89899999 -0.68900001 4291792374
4.9549999 0.89899999 -0.60399997 4291792374
4.9949999 0.93699998 -0.79100001 4291792374
4.9580002 0.93199998 -0.70099998 4291792374
4.9590001 0.93400002 -0.61799997 4291792374
4.9920001 0.97000003 -0.80400002 4291792374
4.961 0.96799999 -0.63099998 4291792374
4.9840002 1.0039999 -0.81599998 4291792374
4.9819999 1.007 -0.64600003 4291792374
4.9790001 1.038 -0.82800001 4291792374
4.9640002 1.038 -0.65600002 4291792374
4.9320002 1.001 -0.95499998 4291792374
4.9229999 0.98400003 -0.921 4291792374
4.9400001 0.97100002 -0.89200002 4291792374
4.941 0.96399999 -0.94499999 4291792374
4.9400001 0.95499998 -0.86000001 4291792374
4.9840002 0.95499998 -0.92000002 4291792374
4.9489999 0.94 -0.82999998 4291792374
4.928 0.93599999 -0.963 4291792374
4.954 0.93199998 -0.88300002 4291792374
4.9549999 0.92400002 -0.79900002 4291792374
4.9400001 0.92000002 -0.93300003 4291792374
4.9530001 0.91399997 -0.85100001 4291792374
4.9580002 0.90700001 -0.76899999 4291792374
4.9749999 0.90799999 -0.90799999 4291792374
4.9520001 0.89600003 -0.81999999 4291792374
4.9720001 0.89200002 -0.74000001 4291792374
4.9400001 0.89099997 -0.95499998 4291792374
4.9510002 0.88499999 -0.87199998 4291792374
4.954 0.87699997 -0.78899997 4291792374
4.9910002 0.87699997 -0.71100003 4291792374
4.9809999 0.87900001 -0.93099999 4291792374
4.9559999 0.86699998 -0.84299999 4291792374
4.954 0.85900003 -0.759 4291792374
4.9899998 0.85799998 -0.68099999 4291792374
4.9099998 0.85500002 -0.972 4291792374
4.9450002 0.85299999 -0.89399999 4291792374
4.9489999 0.84600002 -0.81099999 4291792374
4.9559999 0.83999997 -0.72899997 4291792374
4.9499998 0.83200002 -0.64600003 4291792374
4.9499998 0.84200001 -0.949 4291792374
4.947 0.83399999 -0.86400002 4291792374
4.9499998 0.82700002 -0.78100002 4291792374
4.9530001 0.81999999 -0.69800001 4291792374
4.9549999 0.81400001 -0.61699998 4291792374
4.9400001 0.81999999 -0.91600001 4291792374
4.9510002 0.81400001 -0.83399999 4291792374
4.9530001 0.80699998 -0.75099999 4291792374
4.947 0.79900002 -0.66799998 4291792374
4.9580002 0.79400003 -0.58700001 4291792374
4.9390001 0.80699998 -0.97000003 4291792374
4.9390001 0.79900002 -0.88599998 4291792374
4.948 0.79299998 -0.80400002 4291792374
4.9710002 0.78899997 -0.72399998 4291792374
4.9419999 0.778 -0.63800001 4291792374
4.9749999 0.77700001 -0.56 4291792374
4.9299998 0.78399998 -0.93800002 4291792374
4.9450002 0.778 -0.85699999 4291792374
4.9499998 0.77200001 -0.77399999 4291792374
4.9260001 0.76099998 -0.68800002 4291792374
4.9499998 0.759 -0.61000001 4291792374
4.9260001 0.76200002 -0.90799999 4291792374
4.9400001 0.75599998 -0.82700002 4291792374
4.967 0.75300002 -0.74800003 4291792374
4.948 0.74400002 -0.662 4291792374
4.954 0.73799998 -0.58099997 4291792374
4.9310002 0.741 -0.87900001 4291792374
4.9499998 0.736 -0.79900002 4291792374
4.9559999 0.73000002 -0.71700001 4291792374
4.9439998 0.722 -0.63300002 4291792374
4.9359999 0.71899998 -0.85100001 4291792374
4.9450002 0.713 -0.76899999 4291792374
4.9439998 0.70599997 -0.68699998 4291792374
4.9429998 0.69999999 -0.60500002 4291792374
4.9359999 0.69599998 -0.82300001 4291792374
4.9419999 0.69 -0.74000001 4291792374
4.9390001 0.68300003 -0.65799999 4291792374
4.947 0.67799997 -0.57700002 4291792374
4.9310002 0.67299998 -0.79400003 4291792374
4.9419999 0.667 -0.713 4291792374
4.948 0.662 -0.63099998 4291792374
4.9429998 0.65100002 -0.76700002 4291792374
4.9439998 0.64499998 -0.685 4291792374
4.9419999 0.639 -0.60299999 4291792374
4.934 0.62699997 -0.73900002 4291792374
4.9439998 0.62199998 -0.65799999 4291792374
4.9569998 0.61699998 -0.57700002 4291792374
4.9419999 0.60399997 -0.713 4291792374
4.9450002 0.59799999 -0.63099998 4291792374
4.934 0.579 -0.685 4291792374
4.9419999 0.574 -0.60399997 4291792374
4.9349999 0.101 -0.63599998 4280100298
4.783 0.108 -0.64899999 4280100298
4.7859998 0.119 -0.68199998 4280100298
4.9549999 0.127 -0.63 4280100298
4.7979999 0.13 -0.71600002 4280100298
4.7979999 0.134 -0.64200002 4280100298
4.7989998 0.142 -0.74900001 4280100298
4.8000002 0.146 -0.67500001 4280100298
5.0440001 0.15800001 -0.63200003 4280100298
4.829 0.155 -0.78600001 4280100298
4.809 0.15899999 -0.70899999 4280100298
4.8010001 0.163 -0.63300002 4280100298
4.8699999 0.169 -0.82599998 4280100298
4.816 0.17200001 -0.74199998 4280100298
4.7870002 0.175 -0.66299999 4280100298
4.8340001 0.186 -0.77600002 4280100298
4.7979999 0.189 -0.69599998 4280100298
4.8330002 0.19499999 -0.62699997 4280100298
4.8790002 0.20100001 -0.81599998 4280100298
4.809 0.20299999 -0.72899997 4280100298
4.8169999 0.208 -0.65600002 4280100298
4.8449998 0.219 -0.76700002 4280100298
4.823 0.223 -0.68800002 4280100298
4.881 0.235 -0.80400002 4280100298
4.8169999 0.237 -0.71799999 4280100298
4.8130002 0.242 -0.64300001 4280100298
4.849 0.25400001 -0.75400001 4280100298
4.8239999 0.25799999 -0.67500001 4280100298
4.895 0.27200001 -0.79299998 4280100298
4.822 0.273 -0.70499998 4280100298
4.8699999 0.28200001 -0.63599998 4280100298
4.8790002 0.29300001 -0.74400002 4280100298
4.8379998 0.296 -0.662 4280100298
4.8590002 0.308 -0.77100003 4280100298
4.835 0.31200001 -0.69099998 4280100298
4.902 0.32800001 -0.80800003 4280100298
4.816 0.32800001 -0.71799999 4280100298
4.9029999 0.35100001 -0.76099998 4280100298
4.9039998 0.36300001 -0.86900002 4280100298
4.8899999 0.368 -0.78799999 4280100298
4.9299998 0.384 -0.90399998 4280100298
4.8299999 0.382 -0.80699998 4280100298
5.007 0.40900001 -0.94800001 4280100298
4.8730001 0.40400001 -0.84299999 4280100298
5.0819998 0.435 -0.99299997 4280100298
4.9359999 0.428 -0.884 4280100298
4.9970002 0.454 -0.92400002 4280100298
4.8660002 0.13500001 -0.81999999 4280100298
4.8260002 0.13600001 -0.77899998 4280100298
4.8769999 0.14300001 -0.838 4280100298
4.8119998 0.13699999 -0.74299997 4280100298
4.8520002 0.14300001 -0.79900002 4280100298
4.8150001 0.13699999 -0.70999998 4280100298
4.8530002 0.14300001 -0.76499999 4280100298
4.77 0.13600001 -0.66900003 4280100298
4.8709998 0.148 -0.81800002 4280100298
4.8119998 0.142 -0.72500002 4280100298
4.8000002 0.13699999 -0.63999999 4280100298
4.829 0.146 -0.77700001 4280100298
4.8189998 0.141 -0.69199997 4280100298
4.9990001 0.142 -0.63200003 4280100298
4.8779998 0.15099999 -0.83499998 4280100298
4.809 0.14399999 -0.73900002 4280100298
4.8070002 0.14 -0.65600002 4280100298
4.8720002 0.149 -0.79900002 4280100298
4.809 0.14300001 -0.70499998 4280100298
4.8829999 0.141 -0.63200003 4280100298
4.8499999 0.146 -0.75999999 4280100298
4.8049998 0.14 -0.67000002 4280100298
4.8779998 0.148 -0.815 4280100298
4.8140001 0.142 -0.72100002 4280100298
4.8130002 0.138 -0.63800001 4280100298
4.8210001 0.14399999 -0.77100003 4280100298
4.8060002 0.139 -0.685 4280100298
5.053 0.142 -0.634 4280100298
4.8800001 0.146 -0.82999998 4280100298
4.8080001 0.14 -0.73400003 4280100298
4.7989998 0.13500001 -0.64999998 4280100298
4.8379998 0.14 -0.78799999 4280100298
4.803 0.13600001 -0.699 4280100298
4.9260001 0.13500001 -0.63200003 4280100298
4.7909999 0.13500001 -0.74599999 4280100298
4.7969999 0.131 -0.66399997 4280100298
4.7940001 0.13 -0.713 4280100298
4.8559999 0.12800001 -0.63800001 4280100298
4.7930002 0.124 -0.67799997 4280100298
4.7919998 0.119 -0.64399999 4280100298
5.0040002 0.118 -0.63700002 4280100298
4.881 0.28200001 -0.62900001 4280100298
4.8660002 0.303 -0.65499997 4280100298
4.8390002 0.32300001 -0.67900002 4280100298
4.9299998 0.352 -0.71899998 4280100298
4.868 0.352 -0.63300002 4280100298
4.8319998 0.368 -0.73199999 4280100298
4.835 0.37200001 -0.65499997 4280100298
4.8099999 0.389 -0.755 4280100298
4.8200002 0.39399999 -0.67900002 4280100298
4.8249998 0.414 -0.78299999 4280100298
4.816 0.41800001 -0.70499998 4280100298
4.8720002 0.42699999 -0.63499999 4280100298
4.8579998 0.44100001 -0.815 4280100298
4.8210001 0.442 -0.73100001 4280100298
4.8449998 0.449 -0.65700001 4280100298
4.8860002 0.46799999 -0.84600002 4280100298
4.823 0.46599999 -0.75700003 4280100298
4.829 0.47099999 -0.68000001 4280100298
4.8330002 0.49200001 -0.78399998 4280100298
4.8189998 0.495 -0.70300001 4280100298
4.8649998 0.48899999 -0.824 4280100298
4.835 0.47799999 -0.78600001 4280100298
4.8790002 0.47999999 -0.84200001 4280100298
4.8210001 0.46700001 -0.75 4280100298
5.0170002 0.498 -1.005 4280100298
4.98 0.48699999 -0.91100001 4280100298
4.8540001 0.46799999 -0.80500001 4280100298
4.8010001 0.456 -0.71399999 4280100298
4.9109998 0.47 -0.86400002 4280100298
4.8169999 0.454 -0.76499999 4280100298
4.8210001 0.44800001 -0.68400002 4280100298
5 0.47400001 -0.93199998 4280100298
4.8590002 0.454 -0.82200003 4280100298
4.803 0.44299999 -0.73000002 4280100298
4.8369999 0.44 -0.65399998 4280100298
4.9439998 0.45699999 -0.88700002 4280100298
4.8119998 0.43900001 -0.78100002 4280100298
4.8070002 0.43200001 -0.69800001 4280100298
4.881 0.433 -0.62699997 4280100298
5.0240002 0.46000001 -0.954 4280100298
4.8940001 0.44100001 -0.84399998 4280100298
4.809 0.42699999 -0.74800003 4280100298
4.816 0.42199999 -0.667 4280100298
5.0209999 0.454 -1.005 4280100298
4.9720001 0.44299999 -0.90899998 4280100298
4.8449998 0.42500001 -0.80299997 4280100298
4.803 0.41499999 -0.71399999 4280100298
4.8559999 0.414 -0.63999999 4280100298
5.0609999 0.44400001 -0.97799999 4280100298
4.914 0.42500001 -0.86500001 4280100298
4.8080001 0.40900001 -0.764 4280100298
4.8099999 0.40400001 -0.68300003 4280100298
4.9949999 0.42500001 -0.93099999 4280100298
4.8470001 0.40599999 -0.81999999 4280100298
4.8010001 0.396 -0.73000002 4280100298
4.8299999 0.39300001 -0.653 4280100298
4.9390001 0.40700001 -0.88700002 4280100298
4.8140001 0.38999999 -0.78200001 4280100298
4.8060002 0.384 -0.699 4280100298
4.8850002 0.38499999 -0.62800002 4280100298
4.855 0.38600001 -0.83999997 4280100298
4.7989998 0.37599999 -0.74800003 4280100298
4.8150001 0.37099999 -0.66900003 4280100298
4.822 0.36899999 -0.80199999 4280100298
4.8709998 0.36700001 -0.727 4280100298
4.848 0.36000001 -0.64200002 4280100298
4.921 0.36199999 -0.78500003 4280100298
4.9489999 0.359 -0.70599997 4280100298
4.8319998 0.34099999 -0.73900002 4280100298
4.8369999 0.336 -0.65799999 4280100298
4.869 0.32800001 -0.71399999 4280100298
4.8239999 0.31999999 -0.62599999 4280100298
4.8660002 0.31299999 -0.68199998 4280100298
4.8600001 0.29699999 -0.64999998 4280100298
4.9070001 0.28299999 -0.625 4280100298
3.4000001 1.704 -0.528 4285185182
3.4000001 1.683 -0.50999999 4285185182
3.4089999 1.681 -0.449 4285185182
3.4130001 1.677 -0.38699999 4285185182
3.4170001 1.675 -0.32600001 4285185182
3.3940001 1.66 -0.26199999 4285185182
3.405 1.663 -0.20200001 4285185182
3.4030001 1.663 -0.493 4285185182
3.4070001 1.658 -0.43099999 4285185182
3.408 1.654 -0.36899999 4285185182
3.414 1.653 -0.308 4285185182
3.408 1.647 -0.24699999 4285185182
3.4219999 1.651 -0.18700001 4285185182
3.402 1.64 -0.47499999 4285185182
3.401 1.6339999 -0.41299999 4285185182
3.405 1.631 -0.352 4285185182
3.405 1.627 -0.29100001 4285185182
3.398 1.6210001 -0.23 4285185182
3.4159999 1.627 -0.17 4285185182
3.4159999 1.625 -0.46000001 4285185182
3.4189999 1.6210001 -0.398 4285185182
3.415 1.614 -0.336 4285185182
3.421 1.613 -0.27599999 4285185182
3.4100001 1.605 -0.214 4285185182
3.4089999 1.603 -0.154 4285185182
3.448 1.618 -0.44800001 4285185182
3.4460001 1.6109999 -0.38499999 4285185182
3.447 1.608 -0.32300001 4285185182
3.447 1.604 -0.26199999 4285185182
3.4389999 1.598 -0.2 4285185182
3.441 1.597 -0.14 4285185182
3.4809999 1.61 -0.435 4285185182
3.5120001 1.619 -0.37599999 4285185182
3.48 1.6 -0.31 4285185182
3.477 1.595 -0.248 4285185182
3.471 1.59 -0.186 4285185182
3.5109999 1.6 -0.42199999 4285185182
3.6489999 1.658 -0.37400001 4285185182
3.51 1.591 -0.29699999 4285185182
3.5079999 1.587 -0.235 4285185182
3.5039999 1.582 -0.17299999 4285185182
3.54 1.59 -0.41 4285185182
3.6110001 1.617 -0.354 4285185182
3.549 1.585 -0.285 4285185182
3.54 1.5779999 -0.221 4285185182
3.5339999 1.573 -0.15899999 4285185182
3.579 1.5829999 -0.398 4285185182
3.586 1.581 -0.33500001 4285185182
3.579 1.575 -0.27200001 4285185182
3.5669999 1.566 -0.208 4285185182
3.563 1.562 -0.145 4285185182
3.6129999 1.573 -0.38600001 4285185182
3.6070001 1.566 -0.322 4285185182
3.6059999 1.562 -0.259 4285185182
3.6029999 1.558 -0.19499999 4285185182
3.674 1.575 -0.37799999 4285185182
3.6389999 1.5549999 -0.31 4285185182
3.6389999 1.552 -0.24600001 4285185182
3.6340001 1.5470001 -0.182 4285185182
3.7179999 1.568 -0.36700001 4285185182
3.6760001 1.546 -0.29800001 4285185182
3.6730001 1.541 -0.234 4285185182
3.6719999 1.538 -0.17 4285185182
3.7179999 1.5420001 -0.352 4285185182
3.7090001 1.534 -0.28600001 4285185182
3.7119999 1.5319999 -0.222 4285185182
3.7060001 1.527 -0.15700001 4285185182
3.7520001 1.53 -0.34099999 4285185182
3.7449999 1.523 -0.27500001 4285185182
3.7479999 1.521 -0.20999999 4285185182
3.7479999 1.518 -0.145 4285185182
3.7939999 1.52 -0.33000001 4285185182
3.7869999 1.513 -0.264 4285185182
3.7739999 1.505 -0.197 4285185182
3.7939999 1.511 -0.133 4285185182
3.8280001 1.507 -0.31900001 4285185182
3.823 1.501 -0.252 4285185182
3.8180001 1.4960001 -0.186 4285185182
3.875 1.497 -0.30899999 4285185182
3.865 1.49 -0.242 4285185182
3.8610001 1.4859999 -0.175 4285185182
3.9170001 1.4859999 -0.30000001 4285185182
3.911 1.48 -0.23199999 4285185182
3.9590001 1.474 -0.28999999 4285185182
3.9549999 1.469 -0.222 4285185182
4.0040002 1.462 -0.28 4285185182
4.0450001 1.448 -0.271 4285185182
4.0890002 1.434 -0.26199999 4285185182
4.1350002 1.421 -0.25299999 4285185182
3.927 1.493 -0.491 4285185182
3.881 1.506 -0.48500001 4285185182
3.8369999 1.518 -0.479 4285185182
3.7909999 1.529 -0.47099999 4285185182
3.7809999 1.523 -0.40099999 4285185182
3.744 1.539 -0.46399999 4285185182
3.7409999 1.536 -0.39500001 4285185182
3.7 1.55 -0.456 4285185182
3.691 1.545 -0.38800001 4285185182
3.6570001 1.564 -0.51700002 4285185182
3.6559999 1.561 -0.44800001 4285185182
3.6600001 1.5599999 -0.38100001 4285185182
3.628 1.584 -0.57800001 4285185182
3.6159999 1.575 -0.50800002 4285185182
3.608 1.568 -0.44 4285185182
3.6500001 1.584 -0.377 4285185182
3.589 1.595 -0.56900001 4285185182
3.5780001 1.586 -0.49900001 4285185182
3.569 1.579 -0.43099999 4285185182
3.651 1.613 -0.37400001 4285185182
3.5469999 1.605 -0.55900002 4285185182
3.536 1.596 -0.49000001 4285185182
3.5339999 1.591 -0.42300001 4285185182
3.675 1.652 -0.37200001 4285185182
3.503 1.613 -0.54799998 4285185182
3.4979999 1.6059999 -0.48100001 4285185182
3.494 1.6 -0.414 4285185182
3.6010001 1.647 -0.36000001 4285185182
3.4590001 1.619 -0.537 4285185182
3.4549999 1.613 -0.47 4285185182
3.451 1.608 -0.405 4285185182
3.4779999 1.618 -0.34299999 4285185182
3.424 1.63 -0.52700001 4285185182
3.4219999 1.625 -0.461 4285185182
3.4189999 1.62 -0.396 4285185182
3.4130001 1.614 -0.331 4285185182
3.3929999 1.647 -0.583 4285185182
3.3940001 1.642 -0.51700002 4285185182
3.4030001 1.642 -0.45300001 4285185182
3.402 1.638 -0.389 4285185182
3.4089999 1.6390001 -0.32499999 4285185182
3.4030001 1.679 -0.579 4285185182
3.408 1.676 -0.514 4285185182
3.4070001 1.67 -0.44800001 4285185182
3.408 1.6670001 -0.38299999 4285185182
3.4130001 1.666 -0.31999999 4285185182
3.414 1.711 -0.57499999 4285185182
3.4089999 1.702 -0.50800002 4285185182
5.9460001 1.1670001 2.217 4290204786
5.9640002 1.1339999 2.1919999 4290204786
6.0879998 1.122 2.2049999 4290204786
6.2690001 1.125 1.99 4290204786
6.2519999 1.118 2.1059999 4290204786
6.1329999 1.094 2.188 4290204786
5.8730001 1.045 2.2149999 4290204786
6.3600001 1.11 1.8660001 4290204786
6.349 1.103 1.983 4290204786
6.335 1.097 2.1010001 4290204786
6.2329998 1.076 2.1900001 4290204786
5.9200001 1.018 2.1989999 4290204786
6.4580002 1.097 1.743 4290204786
6.4439998 1.089 1.858 4290204786
6.4359999 1.0829999 1.977 4290204786
6.5359998 1.074 1.732 4290204786
6.5310001 1.068 1.85 4290204786
6.6090002 1.046 1.8380001 4290204786
6.619 1.046 1.819 4290204786
6.5640001 1.0549999 1.853 4290204786
6.5679998 1.058 1.781 4290204786
6.5219998 1.064 1.8890001 4290204786
6.533 1.068 1.819 4290204786
6.4790001 1.073 1.925 4290204786
6.5419998 1.0700001 1.749 4290204786
6.4850001 1.075 1.854 4290204786
6.4320002 1.081 1.96 4290204786
6.4980001 1.077 1.785 4290204786
