# .PCD v0.7 - Point Cloud Data file format
VERSION 0.7
FIELDS x y z rgb
SIZE 4 4 4 4
TYPE F F F U
COUNT 1 1 1 1
WIDTH 1263
HEIGHT 1
VIEWPOINT 0 0 0 1 0 0 0
POINTS 1263
DATA ascii
3.4200001 0.18099999 -0.050999999 4279630765
3.4000001 0.176 0.0020000001 4279630765
3.375 0.171 0.056000002 4279630765
3.3559999 0.167 0.108 4279630765
3.4820001 0.168 -0.15800001 4279630765
3.457 0.162 -0.102 4279630765
3.434 0.15800001 -0.046999998 4279630765
3.4200001 0.154 0.0060000001 4279630765
3.3959999 0.149 0.059999999 4279630765
3.3729999 0.145 0.113 4279630765
3.503 0.145 -0.155 4279630765
3.4760001 0.14 -0.098999999 4279630765
3.4549999 0.13500001 -0.043000001 4279630765
3.431 0.13 0.0099999998 4279630765
3.4089999 0.126 0.064000003 4279630765
3.3929999 0.122 0.118 4279630765
3.5139999 0.121 -0.152 4279630765
3.4960001 0.116 -0.096000001 4279630765
3.4749999 0.112 -0.039999999 4279630765
3.4430001 0.107 0.014 4279630765
3.4260001 0.103 0.068000004 4279630765
3.405 0.097999997 0.121 4279630765
3.527 0.097000003 -0.149 4279630765
3.5109999 0.092 -0.093000002 4279630765
3.4760001 0.088 -0.037 4279630765
3.448 0.082999997 0.017000001 4279630765
3.4349999 0.079000004 0.071000002 4279630765
3.418 0.075000003 0.125 4279630765
3.55 0.072999999 -0.147 4279630765
3.5179999 0.068000004 -0.090000004 4279630765
3.4909999 0.064000003 -0.034000002 4279630765
3.4590001 0.059 0.02 4279630765
3.4489999 0.055 0.075000003 4279630765
3.4349999 0.050999999 0.12899999 4279630765
3.5539999 0.048 -0.14399999 4279630765
3.53 0.044 -0.086999997 4279630765
3.5090001 0.039999999 -0.030999999 4279630765
3.473 0.035 0.023 4279630765
3.4660001 0.030999999 0.078000002 4279630765
3.447 0.027000001 0.132 4279630765
3.585 0.024 -0.142 4279630765
3.5650001 0.02 -0.085000001 4279630765
3.5239999 0.015 -0.028999999 4279630765
3.5039999 0.011 0.026000001 4279630765
3.4890001 0.0070000002 0.081 4279630765
3.4519999 0.003 0.13500001 4279630765
3.5899999 0 -0.14 4279630765
3.5780001 -0.0040000002 -0.082999997 4279630765
3.552 -0.0080000004 -0.027000001 4279630765
3.523 -0.012 0.028000001 4279630765
3.5039999 -0.016000001 0.082999997 4279630765
3.4909999 -0.021 0.138 4279630765
3.618 -0.025 -0.139 4279630765
3.5929999 -0.028999999 -0.082000002 4279630765
3.563 -0.033 -0.025 4279630765
3.5409999 -0.037 0.029999999 4279630765
3.52 -0.041000001 0.086000003 4279630765
3.497 -0.045000002 0.14 4279630765
3.6300001 -0.050000001 -0.138 4279630765
3.6110001 -0.054000001 -0.079999998 4279630765
3.5829999 -0.057999998 -0.023 4279630765
3.5680001 -0.061999999 0.032000002 4279630765
3.543 -0.066 0.088 4279630765
3.5209999 -0.07 0.14300001 4279630765
3.6500001 -0.075999998 -0.13699999 4279630765
3.6289999 -0.079000004 -0.079000004 4279630765
3.6070001 -0.082999997 -0.022 4279630765
3.5840001 -0.086999997 0.034000002 4279630765
3.563 -0.090999998 0.090000004 4279630765
3.5420001 -0.094999999 0.145 4279630765
3.668 -0.101 -0.13699999 4279630765
3.6570001 -0.105 -0.079000004 4279630765
3.625 -0.109 -0.021 4279630765
3.6099999 -0.113 0.035 4279630765
3.5769999 -0.116 0.090999998 4279630765
3.5599999 -0.12 0.147 4279630765
3.6989999 -0.127 -0.13699999 4279630765
3.668 -0.131 -0.078000002 4279630765
3.6489999 -0.13500001 -0.02 4279630765
3.625 -0.139 0.035999998 4279630765
3.6029999 -0.14300001 0.093000002 4279630765
3.579 -0.147 0.148 4279630765
3.7079999 -0.154 -0.13699999 4279630765
3.687 -0.15800001 -0.078000002 4279630765
3.665 -0.161 -0.02 4279630765
3.6370001 -0.16500001 0.037 4279630765
3.6070001 -0.168 0.093000002 4279630765
3.585 -0.17200001 0.149 4279630765
3.694 -0.17900001 -0.13600001 4279630765
3.661 -0.182 -0.077 4279630765
3.6340001 -0.185 -0.018999999 4279630765
3.599 -0.189 0.035999998 4279630765
3.5650001 -0.191 0.092 4279630765
3.5409999 -0.19499999 0.147 4279630765
3.6210001 -0.028999999 -0.171 4279630765
3.6259999 -0.025 -0.146 4279630765
3.599 -0.02 -0.18099999 4279630765
3.619 -0.021 -0.121 4279630765
3.631 -0.017000001 -0.15700001 4279630765
3.5910001 -0.017000001 -0.094999999 4279630765
3.5710001 -0.013 -0.19 4279630765
3.6129999 -0.014 -0.131 4279630765
3.5699999 -0.014 -0.07 4279630765
3.625 -0.011 -0.168 4279630765
3.589 -0.011 -0.106 4279630765
3.552 -0.011 -0.045000002 4279630765
3.6129999 -0.0080000004 -0.142 4279630765
3.5710001 -0.0080000004 -0.079999998 4279630765
3.5239999 -0.0089999996 -0.02 4279630765
3.6059999 -0.0049999999 -0.178 4279630765
3.5869999 -0.0060000001 -0.116 4279630765
3.553 -0.0060000001 -0.055 4279630765
3.5039999 -0.0060000001 0.003 4279630765
3.6029999 -0.0040000002 -0.153 4279630765
3.5739999 -0.0040000002 -0.090999998 4279630765
3.5369999 -0.0040000002 -0.030999999 4279630765
3.5190001 -0.0040000002 0.028000001 4279630765
3.576 -0.0020000001 -0.18700001 4279630765
3.5899999 -0.0020000001 -0.127 4279630765
3.5550001 -0.0020000001 -0.066 4279630765
3.4879999 -0.003 -0.0060000001 4279630765
3.513 -0.003 0.052000001 4279630765
3.6010001 -0.001 -0.163 4279630765
3.579 -0.001 -0.102 4279630765
3.549 -0.001 -0.041000001 4279630765
3.5009999 -0.001 0.017000001 4279630765
3.5020001 -0.001 0.075999998 4279630765
3.5610001 0 -0.19599999 4279630765
3.595 0 -0.138 4279630765
3.566 0 -0.075999998 4279630765
3.5250001 0 -0.016000001 4279630765
3.513 0 0.041999999 4279630765
3.4890001 0 0.1 4279630765
3.6059999 0 -0.17399999 4279630765
3.5769999 0 -0.112 4279630765
3.559 0 -0.050999999 4279630765
3.4679999 0 0.0070000002 4279630765
3.506 0 0.066 4279630765
3.471 0 0.124 4279630765
3.592 0 -0.148 4279630765
3.573 0 -0.086999997 4279630765
3.533 0 -0.026000001 4279630765
3.513 0 0.032000002 4279630765
3.4879999 0 0.090999998 4279630765
3.4560001 0 0.148 4279630765
3.586 0 -0.122 4279630765
3.5610001 0 -0.061000001 4279630765
3.503 0 0.057 4279630765
3.4690001 0 0.115 4279630765
3.448 0 0.17200001 4279630765
3.5799999 0 -0.097000003 4279630765
3.5420001 0 -0.035999998 4279630765
3.4990001 0 0.022 4279630765
3.4860001 0 0.081 4279630765
3.464 0 0.139 4279630765
3.4389999 0 0.19599999 4279630765
3.5650001 -0.001 -0.071000002 4279630765
3.4809999 -0.001 -0.011 4279630765
3.4949999 0 0.046999998 4279630765
3.4749999 0 0.105 4279630765
3.457 0 0.163 4279630765
3.4389999 0 0.22 4279630765
3.553 -0.0020000001 -0.046 4279630765
3.4690001 -0.0020000001 0.012 4279630765
3.487 -0.001 0.071000002 4279630765
3.4719999 -0.001 0.12899999 4279630765
3.45 -0.001 0.186 4279630765
3.4319999 0 0.244 4279630765
3.5309999 -0.003 -0.021 4279630765
3.4749999 -0.003 0.035999998 4279630765
3.4820001 -0.003 0.094999999 4279630765
3.4660001 -0.0020000001 0.153 4279630765
3.4460001 -0.0020000001 0.20999999 4279630765
3.4200001 -0.001 0.26699999 4279630765
3.4949999 -0.0049999999 0.061000001 4279630765
3.4809999 -0.0040000002 0.119 4279630765
3.461 -0.0040000002 0.177 4279630765
3.434 -0.003 0.234 4279630765
3.411 -0.0020000001 0.28999999 4279630765
3.5 -0.0070000002 0.026000001 4279630765
3.487 -0.0060000001 0.085000001 4279630765
3.4749999 -0.0060000001 0.14300001 4279630765
3.4519999 -0.0049999999 0.20100001 4279630765
3.4219999 -0.0049999999 0.257 4279630765
3.51 -0.0089999996 0.050999999 4279630765
3.4879999 -0.0089999996 0.109 4279630765
3.47 -0.0080000004 0.167 4279630765
3.4419999 -0.0070000002 0.22400001 4279630765
3.414 -0.0070000002 0.28 4279630765
3.5039999 -0.012 0.075000003 4279630765
3.483 -0.011 0.133 4279630765
3.46 -0.0099999998 0.191 4279630765
3.4360001 -0.0099999998 0.248 4279630765
3.4070001 -0.0089999996 0.30399999 4279630765
3.5050001 -0.015 0.098999999 4279630765
3.474 -0.014 0.15700001 4279630765
3.4519999 -0.013 0.214 4279630765
3.4230001 -0.012 0.271 4279630765
3.4949999 -0.017999999 0.123 4279630765
3.4660001 -0.017000001 0.18099999 4279630765
3.4389999 -0.016000001 0.23800001 4279630765
3.4070001 -0.015 0.294 4279630765
3.484 -0.021 0.147 4279630765
3.4560001 -0.02 0.204 4279630765
3.4289999 -0.018999999 0.26100001 4279630765
3.4389999 -0.017999999 0.32100001 4279630765
3.477 -0.025 0.171 4279630765
3.444 -0.024 0.228 4279630765
3.4159999 -0.022 0.28400001 4279630765
3.467 -0.028999999 0.19400001 4279630765
3.4389999 -0.027000001 0.25099999 4279630765
3.4100001 -0.026000001 0.30700001 4279630765
3.4579999 -0.033 0.21699999 4279630765
3.425 -0.030999999 0.27399999 4279630765
3.45 -0.037 0.241 4279630765
3.418 -0.035999998 0.29699999 4279630765
3.4419999 -0.041999999 0.26300001 4279630765
3.421 -0.041000001 0.31999999 4279630765
3.4300001 -0.046999998 0.28600001 4279630765
3.4260001 -0.052000001 0.30899999 4279630765
3.4319999 -0.057999998 0.333 4279630765
3.5539999 -0.191 0.133 4279630765
3.6530001 -0.19 -0.092 4279630765
3.638 -0.184 -0.034000002 4279630765
3.6229999 -0.17900001 0.022 4279630765
3.6070001 -0.17299999 0.078000002 4279630765
3.6010001 -0.169 0.13500001 4279630765
3.6789999 -0.17 -0.15000001 4279630765
3.691 -0.16599999 -0.093000002 4279630765
3.6670001 -0.16 -0.035 4279630765
3.641 -0.154 0.022 4279630765
3.6059999 -0.148 0.078000002 4279630765
3.5799999 -0.14300001 0.134 4279630765
3.6819999 -0.14399999 -0.15000001 4279630765
3.675 -0.139 -0.092 4279630765
3.652 -0.134 -0.034000002 4279630765
3.6159999 -0.12800001 0.022 4279630765
3.5899999 -0.122 0.078000002 4279630765
3.563 -0.117 0.134 4279630765
3.6789999 -0.118 -0.15000001 4279630765
3.6619999 -0.113 -0.090999998 4279630765
3.6329999 -0.108 -0.034000002 4279630765
3.6010001 -0.102 0.022 4279630765
3.563 -0.096000001 0.078000002 4279630765
3.5409999 -0.092 0.133 4279630765
3.6589999 -0.092 -0.148 4279630765
3.6340001 -0.086000003 -0.090000004 4279630765
3.605 -0.081 -0.033 4279630765
3.5799999 -0.075999998 0.023 4279630765
3.546 -0.071000002 0.079000004 4279630765
3.523 -0.067000002 0.134 4279630765
3.6429999 -0.064999998 -0.146 4279630765
3.6099999 -0.059999999 -0.088 4279630765
3.5840001 -0.056000002 -0.030999999 4279630765
3.5510001 -0.050999999 0.024 4279630765
3.5209999 -0.046 0.079000004 4279630765
3.4949999 -0.041999999 0.134 4279630765
3.6240001 -0.039999999 -0.14399999 4279630765
3.598 -0.035 -0.086999997 4279630765
3.5680001 -0.030999999 -0.029999999 4279630765
3.533 -0.026000001 0.025 4279630765
3.506 -0.022 0.079999998 4279630765
3.477 -0.017999999 0.134 4279630765
3.5999999 -0.014 -0.142 4279630765
3.576 -0.0099999998 -0.083999999 4279630765
3.5469999 -0.0060000001 -0.028000001 4279630765
3.5090001 -0.0020000001 0.027000001 4279630765
3.4849999 0.001 0.082000002 4279630765
3.4549999 0.0049999999 0.13500001 4279630765
3.585 0.0099999998 -0.139 4279630765
3.5639999 0.014 -0.082000002 4279630765
3.5209999 0.017999999 -0.026000001 4279630765
3.4909999 0.022 0.028999999 4279630765
3.4649999 0.026000001 0.082999997 4279630765
3.4389999 0.028999999 0.13699999 4279630765
3.5639999 0.035 -0.13600001 4279630765
3.5280001 0.039000001 -0.079000004 4279630765
3.4879999 0.041999999 -0.023 4279630765
3.464 0.046 0.030999999 4279630765
3.451 0.050000001 0.085000001 4279630765
3.425 0.052999999 0.138 4279630765
3.543 0.059999999 -0.133 4279630765
3.5120001 0.063000001 -0.075999998 4279630765
3.47 0.067000002 -0.02 4279630765
3.4530001 0.07 0.033 4279630765
3.4260001 0.072999999 0.086999997 4279630765
3.4059999 0.075999998 0.14 4279630765
3.5280001 0.083999999 -0.12899999 4279630765
3.4949999 0.086999997 -0.072999999 4279630765
3.4619999 0.090000004 -0.017999999 4279630765
3.4389999 0.093000002 0.035999998 4279630765
3.4119999 0.096000001 0.089000002 4279630765
3.391 0.1 0.14300001 4279630765
3.5090001 0.109 -0.126 4279630765
3.484 0.111 -0.07 4279630765
3.4560001 0.114 -0.015 4279630765
3.427 0.117 0.039000001 4279630765
3.395 0.119 0.092 4279630765
3.3729999 0.122 0.145 4279630765
3.4890001 0.132 -0.122 4279630765
3.4619999 0.13500001 -0.066 4279630765
3.4349999 0.13699999 -0.011 4279630765
3.408 0.14 0.041999999 4279630765
3.372 0.142 0.094999999 4279630765
3.3540001 0.145 0.147 4279630765
3.46 0.156 -0.117 4279630765
3.441 0.15800001 -0.061999999 4279630765
3.4100001 0.16 -0.0070000002 4279630765
3.3889999 0.163 0.045000002 4279630765
3.3510001 0.164 0.097999997 4279630765
3.4419999 0.178 -0.113 4279630765
3.421 0.18099999 -0.057999998 4279630765
3.3929999 0.183 -0.0040000002 4279630765
3.3659999 0.184 0.048999999 4279630765
3.4230001 0.20100001 -0.108 4279630765
3.4030001 0.20299999 -0.052999999 4279630765
3.378 0.205 0 4279630765
3.3610001 0.207 0.052999999 4279630765
3.4059999 0.22400001 -0.103 4279630765
3.3800001 0.22499999 -0.048999999 4279630765
3.3629999 0.227 0.0040000002 4279630765
3.3859999 0.24600001 -0.097999997 4279630765
3.372 0.248 -0.044 4279630765
3.405 -0.017000001 0.292 4279630765
3.4119999 -0.017999999 0.26899999 4279630765
3.447 -0.021 0.322 4279630765
3.4300001 -0.018999999 0.24699999 4279630765
3.402 -0.021 0.294 4279630765
3.4430001 -0.02 0.223 4279630765
3.4089999 -0.022 0.271 4279630765
3.431 -0.024 0.32300001 4279630765
3.4560001 -0.021 0.2 4279630765
3.4200001 -0.023 0.248 4279630765
3.4059999 -0.024 0.29699999 4279630765
3.467 -0.022 0.177 4279630765
3.4400001 -0.023 0.22499999 4279630765
3.4200001 -0.024 0.27399999 4279630765
3.427 -0.026000001 0.32499999 4279630765
3.48 -0.022 0.153 4279630765
3.457 -0.023 0.20200001 4279630765
3.428 -0.024 0.25 4279630765
3.4100001 -0.025 0.29899999 4279630765
3.4909999 -0.022 0.12899999 4279630765
3.467 -0.023 0.178 4279630765
3.448 -0.024 0.228 4279630765
3.4260001 -0.025 0.27599999 4279630765
3.494 -0.021 0.105 4279630765
3.4790001 -0.022 0.155 4279630765
3.4590001 -0.023 0.205 4279630765
3.4360001 -0.024 0.25299999 4279630765
3.411 -0.024 0.301 4279630765
3.503 -0.02 0.081 4279630765
3.4849999 -0.021 0.131 4279630765
3.4690001 -0.022 0.18099999 4279630765
3.448 -0.022 0.23 4279630765
3.425 -0.023 0.278 4279630765
3.5079999 -0.018999999 0.057 4279630765
3.497 -0.02 0.107 4279630765
3.4820001 -0.02 0.15700001 4279630765
3.4579999 -0.021 0.207 4279630765
3.431 -0.021 0.255 4279630765
3.414 -0.022 0.30399999 4279630765
3.51 -0.017999999 0.033 4279630765
3.497 -0.017999999 0.082999997 4279630765
3.4860001 -0.018999999 0.133 4279630765
3.471 -0.018999999 0.183 4279630765
3.4489999 -0.018999999 0.23199999 4279630765
3.421 -0.02 0.28099999 4279630765
3.5090001 -0.016000001 0.0089999996 4279630765
3.5079999 -0.016000001 0.059 4279630765
3.487 -0.017000001 0.109 4279630765
3.4760001 -0.017000001 0.15899999 4279630765
3.45 -0.017000001 0.208 4279630765
3.428 -0.017000001 0.257 4279630765
3.5320001 -0.014 -0.015 4279630765
3.49 -0.014 0.035 4279630765
3.5009999 -0.014 0.086000003 4279630765
3.477 -0.014 0.13500001 4279630765
3.461 -0.014 0.185 4279630765
3.4400001 -0.014 0.234 4279630765
3.5539999 -0.012 -0.039999999 4279630765
3.4920001 -0.012 0.0099999998 4279630765
3.5039999 -0.012 0.061000001 4279630765
3.4860001 -0.012 0.111 4279630765
3.4590001 -0.011 0.161 4279630765
3.444 -0.011 0.20999999 4279630765
3.569 -0.0089999996 -0.064999998 4279630765
3.5239999 -0.0089999996 -0.013 4279630765
3.5050001 -0.0089999996 0.037 4279630765
3.4860001 -0.0089999996 0.088 4279630765
3.4630001 -0.0080000004 0.13699999 4279630765
3.4449999 -0.0080000004 0.186 4279630765
3.576 -0.0060000001 -0.089000002 4279630765
3.5469999 -0.0060000001 -0.037999999 4279630765
3.5039999 -0.0060000001 0.013 4279630765
3.51 -0.0049999999 0.063000001 4279630765
3.4649999 -0.0049999999 0.113 4279630765
3.4430001 -0.0040000002 0.162 4279630765
3.579 -0.003 -0.115 4279630765
3.566 -0.003 -0.061999999 4279630765
3.5050001 -0.0020000001 -0.011 4279630765
3.5109999 -0.0020000001 0.039000001 4279630765
3.487 -0.001 0.090000004 4279630765
3.454 0 0.139 4279630765
3.585 0 -0.14 4279630765
3.5669999 0 -0.086999997 4279630765
3.5380001 0.001 -0.035 4279630765
3.484 0.001 0.015 4279630765
3.493 0.0020000001 0.066 4279630765
3.4719999 0.003 0.116 4279630765
3.602 0.003 -0.16500001 4279630765
3.569 0.0040000002 -0.112 4279630765
3.5580001 0.0049999999 -0.059999999 4279630765
3.4909999 0.0060000001 -0.0080000004 4279630765
3.4990001 0.0070000002 0.041999999 4279630765
3.477 0.0080000004 0.092 4279630765
3.5680001 0.0070000002 -0.189 4279630765
3.5829999 0.0080000004 -0.13699999 4279630765
3.5699999 0.0089999996 -0.085000001 4279630765
3.536 0.0099999998 -0.033 4279630765
3.493 0.011 0.017999999 4279630765
3.4860001 0.013 0.068000004 4279630765
3.589 0.013 -0.162 4279630765
3.575 0.014 -0.11 4279630765
3.5469999 0.015 -0.057 4279630765
3.4879999 0.016000001 -0.0049999999 4279630765
3.4909999 0.017999999 0.044 4279630765
3.582 0.017999999 -0.18700001 4279630765
3.5769999 0.018999999 -0.134 4279630765
3.5539999 0.021 -0.081 4279630765
3.517 0.022 -0.028999999 4279630765
3.483 0.023 0.021 4279630765
3.5880001 0.025 -0.15899999 4279630765
3.5569999 0.026000001 -0.106 4279630765
3.526 0.027000001 -0.052999999 4279630765
3.484 0.028999999 -0.0020000001 4279630765
3.5899999 0.029999999 -0.183 4279630765
3.562 0.032000002 -0.13 4279630765
3.5409999 0.033 -0.077 4279630765
3.4990001 0.035 -0.025 4279630765
3.5420001 0.035999998 -0.205 4279630765
3.579 0.037999999 -0.155 4279630765
3.5420001 0.039999999 -0.101 4279630765
3.5139999 0.041000001 -0.048999999 4279630765
3.586 0.045000002 -0.17900001 4279630765
3.5650001 0.046 -0.126 4279630765
3.5280001 0.048 -0.072999999 4279630765
3.543 0.050999999 -0.20100001 4279630765
3.5650001 0.052999999 -0.15000001 4279630765
3.543 0.055 -0.097000003 4279630765
3.572 0.061000001 -0.17399999 4279630765
3.5469999 0.063000001 -0.121 4279630765
3.553 0.068000004 -0.197 4279630765
3.552 0.07 -0.145 4279630765
3.5569999 0.078000002 -0.168 4279630765
3.563 0.086000003 -0.192 4279630765
3.5139999 0.093000002 -0.212 4279630765
3.401 0.26899999 -0.086000003 4279630765
3.385 0.244 -0.088 4279630765
3.375 0.23999999 -0.035 4279630765
3.402 0.222 -0.090999998 4279630765
3.3929999 0.21799999 -0.037999999 4279630765
3.369 0.213 0.014 4279630765
3.3859999 0.211 0.067000002 4279630765
3.428 0.2 -0.094999999 4279630765
3.4089999 0.19499999 -0.041999999 4279630765
3.3859999 0.191 0.011 4279630765
3.3659999 0.186 0.063000001 4279630765
3.444 0.177 -0.098999999 4279630765
3.425 0.17299999 -0.045000002 4279630765
3.4030001 0.168 0.0070000002 4279630765
3.3800001 0.163 0.059999999 4279630765
3.3570001 0.15899999 0.112 4279630765
3.46 0.154 -0.103 4279630765
3.451 0.15000001 -0.048999999 4279630765
3.418 0.145 0.003 4279630765
3.4059999 0.141 0.056000002 4279630765
3.378 0.13600001 0.108 4279630765
3.3540001 0.132 0.16 4279630765
3.4849999 0.131 -0.108 4279630765
3.467 0.127 -0.054000001 4279630765
3.438 0.122 0 4279630765
3.4219999 0.118 0.052000001 4279630765
3.3989999 0.114 0.105 4279630765
3.3770001 0.109 0.156 4279630765
3.5079999 0.108 -0.113 4279630765
3.4809999 0.104 -0.057999998 4279630765
3.448 0.098999999 -0.0040000002 4279630765
3.4389999 0.094999999 0.048 4279630765
3.4189999 0.090999998 0.101 4279630765
3.3970001 0.086000003 0.153 4279630765
3.523 0.085000001 -0.118 4279630765
3.497 0.079999998 -0.063000001 4279630765
3.461 0.075999998 -0.0089999996 4279630765
3.4489999 0.071000002 0.043000001 4279630765
3.424 0.067000002 0.096000001 4279630765
3.4159999 0.063000001 0.148 4279630765
3.539 0.061000001 -0.124 4279630765
3.52 0.057 -0.068999998 4279630765
3.473 0.052000001 -0.014 4279630765
3.4690001 0.048 0.037999999 4279630765
3.437 0.044 0.090999998 4279630765
3.427 0.039999999 0.14399999 4279630765
3.5650001 0.037 -0.13 4279630765
3.549 0.033 -0.075000003 4279630765
3.5020001 0.028999999 -0.02 4279630765
3.4849999 0.025 0.033 4279630765
3.477 0.021 0.086000003 4279630765
3.4549999 0.016000001 0.139 4279630765
3.585 0.013 -0.13699999 4279630765
3.5669999 0.0089999996 -0.081 4279630765
3.529 0.0049999999 -0.026000001 4279630765
3.506 0.001 0.027000001 4279630765
3.4949999 -0.0020000001 0.081 4279630765
3.4679999 -0.0060000001 0.134 4279630765
3.608 -0.0099999998 -0.14300001 4279630765
3.5869999 -0.014 -0.086999997 4279630765
3.5569999 -0.017999999 -0.032000002 4279630765
3.5309999 -0.022 0.021 4279630765
3.5179999 -0.026000001 0.075000003 4279630765
3.4960001 -0.029999999 0.12899999 4279630765
3.622 -0.034000002 -0.15000001 4279630765
3.6040001 -0.037999999 -0.093999997 4279630765
3.5769999 -0.041999999 -0.037999999 4279630765
3.556 -0.046 0.015 4279630765
3.533 -0.050000001 0.068999998 4279630765
3.5139999 -0.054000001 0.123 4279630765
3.6400001 -0.059 -0.15800001 4279630765
3.6289999 -0.063000001 -0.101 4279630765
3.608 -0.067000002 -0.046 4279630765
3.5769999 -0.07 0.0089999996 4279630765
3.5599999 -0.074000001 0.063000001 4279630765
3.5339999 -0.078000002 0.117 4279630765
3.6400001 -0.082999997 -0.16500001 4279630765
3.6500001 -0.088 -0.109 4279630765
3.6270001 -0.092 -0.052999999 4279630765
3.608 -0.094999999 0.001 4279630765
3.5799999 -0.098999999 0.056000002 4279630765
3.5650001 -0.103 0.11 4279630765
3.6719999 -0.113 -0.117 4279630765
3.6530001 -0.117 -0.061000001 4279630765
3.6270001 -0.12 -0.0049999999 4279630765
3.6059999 -0.124 0.048999999 4279630765
3.582 -0.12800001 0.103 4279630765
3.701 -0.139 -0.126 4279630765
3.678 -0.142 -0.068999998 4279630765
3.6559999 -0.146 -0.013 4279630765
3.625 -0.149 0.041000001 4279630765
3.6099999 -0.153 0.096000001 4279630765
3.707 -0.164 -0.134 4279630765
3.687 -0.167 -0.077 4279630765
3.6559999 -0.17 -0.021 4279630765
3.6259999 -0.17299999 0.033 4279630765
3.5999999 -0.177 0.088 4279630765
3.684 -0.18700001 -0.142 4279630765
3.652 -0.19 -0.085000001 4279630765
3.622 -0.193 -0.028999999 4279630765
3.5480001 0.079999998 -0.20100001 4279630765
3.566 0.075999998 -0.177 4279630765
3.5209999 0.074000001 -0.20999999 4279630765
3.5569999 0.071999997 -0.153 4279630765
3.5699999 0.07 -0.18799999 4279630765
3.549 0.068000004 -0.12800001 4279630765
3.5650001 0.064999998 -0.163 4279630765
3.5450001 0.063000001 -0.103 4279630765
3.5510001 0.061999999 -0.198 4279630765
3.5569999 0.059999999 -0.139 4279630765
3.5179999 0.057999998 -0.078000002 4279630765
3.5780001 0.057 -0.175 4279630765
3.5439999 0.055 -0.114 4279630765
3.5150001 0.052000001 -0.054000001 4279630765
3.5339999 0.052000001 -0.208 4279630765
3.5680001 0.050999999 -0.15000001 4279630765
3.5350001 0.048999999 -0.090000004 4279630765
3.503 0.046999998 -0.029999999 4279630765
3.5769999 0.046999998 -0.186 4279630765
3.5550001 0.045000002 -0.125 4279630765
3.5309999 0.043000001 -0.064999998 4279630765
3.5739999 0.039999999 -0.161 4279630765
3.55 0.039000001 -0.101 4279630765
3.52 0.037 -0.041000001 4279630765
3.467 0.035 0.016000001 4279630765
3.5569999 0.035 -0.19599999 4279630765
3.573 0.034000002 -0.13699999 4279630765
3.5469999 0.032000002 -0.077 4279630765
3.5009999 0.029999999 -0.017000001 4279630765
3.4849999 0.028000001 0.039999999 4279630765
3.5899999 0.028999999 -0.17399999 4279630765
3.5650001 0.027000001 -0.113 4279630765
3.536 0.025 -0.052999999 4279630765
3.4849999 0.023 0.0049999999 4279630765
3.49 0.022 0.063000001 4279630765
3.5810001 0.021 -0.15000001 4279630765
3.5639999 0.02 -0.089000002 4279630765
3.533 0.017999999 -0.029999999 4279630765
3.4990001 0.017000001 0.028000001 4279630765
3.4890001 0.015 0.086999997 4279630765
3.5829999 0.015 -0.186 4279630765
3.5799999 0.014 -0.126 4279630765
3.5639999 0.012 -0.066 4279630765
3.503 0.011 -0.0060000001 4279630765
3.4960001 0.0089999996 0.052000001 4279630765
3.48 0.0080000004 0.11 4279630765
3.5999999 0.0070000002 -0.163 4279630765
3.575 0.0060000001 -0.102 4279630765
3.55 0.0049999999 -0.041999999 4279630765
3.4979999 0.003 0.017000001 4279630765
3.4890001 0.0020000001 0.075000003 4279630765
3.4630001 0.001 0.133 4279630765
3.5929999 0 -0.139 4279630765
3.575 -0.001 -0.079000004 4279630765
3.5309999 -0.003 -0.017999999 4279630765
3.523 -0.0040000002 0.039999999 4279630765
3.4879999 -0.0049999999 0.097999997 4279630765
3.454 -0.0060000001 0.155 4279630765
3.5940001 -0.0080000004 -0.116 4279630765
3.573 -0.0099999998 -0.055 4279630765
3.503 -0.011 0.0040000002 4279630765
3.513 -0.012 0.063000001 4279630765
3.4779999 -0.013 0.121 4279630765
3.4590001 -0.014 0.178 4279630765
3.5899999 -0.017000001 -0.092 4279630765
3.559 -0.017999999 -0.032000002 4279630765
3.529 -0.018999999 0.027000001 4279630765
3.5109999 -0.02 0.086000003 4279630765
3.477 -0.021 0.14399999 4279630765
3.457 -0.022 0.20100001 4279630765
3.5910001 -0.026000001 -0.068999998 4279630765
3.5350001 -0.027000001 -0.0080000004 4279630765
3.5280001 -0.028000001 0.050000001 4279630765
3.5020001 -0.028999999 0.109 4279630765
3.474 -0.029999999 0.16599999 4279630765
3.4619999 -0.030999999 0.22400001 4279630765
3.586 -0.035999998 -0.045000002 4279630765
3.5420001 -0.035999998 0.014 4279630765
3.517 -0.037 0.072999999 4279630765
3.5 -0.037999999 0.131 4279630765
3.4760001 -0.039000001 0.189 4279630765
3.46 -0.039000001 0.24699999 4279630765
3.5710001 -0.045000002 -0.022 4279630765
3.53 -0.045000002 0.035999998 4279630765
3.516 -0.046 0.094999999 4279630765
3.5039999 -0.046999998 0.154 4279630765
3.4820001 -0.048 0.212 4279630765
3.4560001 -0.048 0.26899999 4279630765
3.5510001 -0.054000001 0 4279630765
3.527 -0.055 0.059 4279630765
3.517 -0.056000002 0.118 4279630765
3.5039999 -0.056000002 0.176 4279630765
3.474 -0.057 0.234 4279630765
3.454 -0.057999998 0.292 4279630765
3.5710001 -0.064999998 0.022 4279630765
3.539 -0.064999998 0.081 4279630765
3.5239999 -0.066 0.141 4279630765
3.4949999 -0.066 0.199 4279630765
3.4719999 -0.067000002 0.25600001 4279630765
3.454 -0.067000002 0.31400001 4279630765
3.5699999 -0.075000003 0.044 4279630765
3.5450001 -0.075000003 0.104 4279630765
3.5220001 -0.075999998 0.163 4279630765
3.494 -0.075999998 0.221 4279630765
3.4679999 -0.077 0.27900001 4279630765
3.4419999 -0.077 0.33500001 4279630765
3.5699999 -0.086000003 0.067000002 4279630765
3.552 -0.086000003 0.127 4279630765
3.5190001 -0.086000003 0.185 4279630765
3.494 -0.086999997 0.243 4279630765
3.4660001 -0.086999997 0.301 4279630765
3.4849999 -0.088 0.36199999 4279630765
3.5669999 -0.097000003 0.089000002 4279630765
3.55 -0.097000003 0.149 4279630765
3.5179999 -0.097000003 0.207 4279630765
3.4920001 -0.097000003 0.266 4279630765
3.464 -0.097000003 0.32300001 4279630765
3.559 -0.107 0.111 4279630765
3.5420001 -0.108 0.171 4279630765
3.5150001 -0.108 0.229 4279630765
3.4909999 -0.108 0.28799999 4279630765
3.461 -0.108 0.345 4279630765
3.5680001 -0.119 0.134 4279630765
3.5469999 -0.119 0.193 4279630765
3.5139999 -0.119 0.25099999 4279630765
3.4890001 -0.119 0.30899999 4279630765
3.4389999 -0.118 0.36399999 4279630765
3.566 -0.131 0.155 4279630765
3.546 -0.131 0.215 4279630765
3.5120001 -0.13 0.273 4279630765
3.4860001 -0.13 0.331 4279630765
3.5650001 -0.14300001 0.177 4279630765
3.536 -0.142 0.236 4279630765
3.5090001 -0.142 0.294 4279630765
3.49 -0.142 0.35299999 4279630765
3.5650001 -0.155 0.199 4279630765
3.543 -0.155 0.25799999 4279630765
3.5090001 -0.154 0.31600001 4279630765
3.487 -0.154 0.37400001 4279630765
3.5580001 -0.167 0.22 4279630765
3.5409999 -0.167 0.27900001 4279630765
3.5109999 -0.167 0.338 4279630765
3.52 -0.178 0.23800001 4279630765
3.506 -0.178 0.29800001 4279630765
3.4860001 -0.178 0.35600001 4279630765
3.5009999 -0.19 0.25799999 4279630765
3.4749999 -0.189 0.31600001 4279630765
3.5020001 -0.192 0.37900001 4279630765
3.457 -0.214 0.35600001 4279630765
3.642 -0.18799999 -0.043000001 4279630765
3.6170001 -0.183 0.015 4279630765
3.6010001 -0.178 0.072999999 4279630765
3.6719999 -0.17399999 -0.154 4279630765
3.691 -0.171 -0.094999999 4279630765
3.6689999 -0.16500001 -0.035 4279630765
3.645 -0.16 0.023 4279630765
3.615 -0.154 0.082000002 4279630765
3.694 -0.15000001 -0.146 4279630765
3.6819999 -0.146 -0.086000003 4279630765
3.651 -0.14 -0.026000001 4279630765
3.6140001 -0.13500001 0.030999999 4279630765
3.595 -0.13 0.089000002 4279630765
3.687 -0.126 -0.13699999 4279630765
3.6589999 -0.12 -0.077 4279630765
3.632 -0.115 -0.017000001 4279630765
3.595 -0.11 0.039999999 4279630765
3.5680001 -0.105 0.097000003 4279630765
3.6689999 -0.101 -0.127 4279630765
3.645 -0.096000001 -0.067000002 4279630765
3.602 -0.090999998 -0.0080000004 4279630765
3.573 -0.086000003 0.048 4279630765
3.5480001 -0.081 0.105 4279630765
3.612 -0.079999998 -0.175 4279630765
3.645 -0.075999998 -0.117 4279630765
3.6140001 -0.071000002 -0.057999998 4279630765
3.573 -0.066 0 4279630765
3.5510001 -0.061999999 0.057 4279630765
3.52 -0.057999998 0.113 4279630765
3.628 -0.056000002 -0.16599999 4279630765
3.622 -0.052000001 -0.107 4279630765
3.586 -0.048 -0.048 4279630765
3.549 -0.043000001 0.0089999996 4279630765
3.5209999 -0.039000001 0.066 4279630765
3.5090001 -0.035 0.122 4279630765
3.6199999 -0.032000002 -0.156 4279630765
3.598 -0.028000001 -0.097000003 4279630765
3.5669999 -0.024 -0.037999999 4279630765
3.5239999 -0.02 0.017999999 4279630765
3.5150001 -0.016000001 0.075000003 4279630765
3.4779999 -0.012 0.13 4279630765
3.6010001 -0.0089999996 -0.145 4279630765
3.569 -0.0049999999 -0.086000003 4279630765
3.5369999 -0.001 -0.028000001 4279630765
3.503 0.0020000001 0.028000001 4279630765
3.4879999 0.0049999999 0.083999999 4279630765
3.451 0.0089999996 0.139 4279630765
3.5829999 0.013 -0.134 4279630765
3.5569999 0.017000001 -0.075000003 4279630765
3.5079999 0.02 -0.017999999 4279630765
3.4890001 0.024 0.037999999 4279630765
3.4619999 0.027000001 0.093000002 4279630765
3.4349999 0.030999999 0.148 4279630765
3.5569999 0.035999998 -0.122 4279630765
3.5280001 0.039999999 -0.064000003 4279630765
3.47 0.046 0.048 4279630765
3.441 0.048999999 0.103 4279630765
3.4170001 0.052000001 0.15700001 4279630765
3.533 0.059 -0.111 4279630765
3.5009999 0.061999999 -0.052999999 4279630765
3.4519999 0.064000003 0.0020000001 4279630765
3.447 0.068000004 0.057999998 4279630765
3.4230001 0.071000002 0.112 4279630765
3.401 0.074000001 0.167 4279630765
3.5139999 0.081 -0.098999999 4279630765
3.4790001 0.082999997 -0.041999999 4279630765
3.441 0.086000003 0.013 4279630765
3.434 0.089000002 0.068000004 4279630765
3.4070001 0.092 0.122 4279630765
3.3770001 0.093999997 0.176 4279630765
3.4920001 0.102 -0.088 4279630765
3.47 0.105 -0.030999999 4279630765
3.4449999 0.108 0.024 4279630765
3.411 0.11 0.078000002 4279630765
3.3859999 0.113 0.132 4279630765
3.3570001 0.115 0.185 4279630765
3.473 0.124 -0.075999998 4279630765
3.448 0.126 -0.02 4279630765
3.4230001 0.12800001 0.035 4279630765
3.3929999 0.13 0.089000002 4279630765
3.3570001 0.133 0.142 4279630765
3.45 0.14399999 -0.064000003 4279630765
3.4260001 0.146 -0.0080000004 4279630765
3.3929999 0.148 0.045000002 4279630765
3.3699999 0.15000001 0.098999999 4279630765
3.3740001 0.154 0.154 4279630765
3.4300001 0.164 -0.052000001 4279630765
3.404 0.16599999 0.0020000001 4279630765
3.3759999 0.168 0.056000002 4279630765
3.3559999 0.17 0.11 4279630765
3.3989999 0.184 -0.039999999 4279630765
3.382 0.186 0.014 4279630765
3.362 0.18799999 0.068000004 4279630765
3.388 0.204 -0.028000001 4279630765
3.3610001 0.205 0.026000001 4279630765
3.3659999 0.223 -0.015 4279630765
3.473 -0.182 0.36199999 4279630765
3.494 -0.178 0.34099999 4279630765
3.5039999 -0.17299999 0.31799999 4279630765
3.4920001 -0.17399999 0.36700001 4279630765
3.5280001 -0.168 0.296 4279630765
3.5050001 -0.168 0.345 4279630765
3.5320001 -0.162 0.27200001 4279630765
3.5150001 -0.162 0.322 4279630765
3.494 -0.162 0.37099999 4279630765
3.5369999 -0.155 0.249 4279630765
3.5190001 -0.155 0.29800001 4279630765
3.4990001 -0.155 0.347 4279630765
3.5409999 -0.149 0.22499999 4279630765
3.517 -0.148 0.27500001 4279630765
3.4990001 -0.148 0.324 4279630765
3.471 -0.147 0.37200001 4279630765
3.5439999 -0.141 0.20200001 4279630765
3.526 -0.141 0.252 4279630765
3.506 -0.14 0.301 4279630765
3.4820001 -0.14 0.34999999 4279630765
3.5539999 -0.134 0.17900001 4279630765
3.527 -0.133 0.228 4279630765
3.5120001 -0.133 0.278 4279630765
3.49 -0.132 0.32699999 4279630765
3.494 -0.132 0.37799999 4279630765
3.5569999 -0.126 0.155 4279630765
3.529 -0.125 0.205 4279630765
3.5120001 -0.125 0.255 4279630765
3.4920001 -0.124 0.30399999 4279630765
3.4660001 -0.123 0.352 4279630765
3.559 -0.118 0.132 4279630765
3.539 -0.117 0.182 4279630765
3.5150001 -0.116 0.23199999 4279630765
3.494 -0.116 0.28099999 4279630765
3.4679999 -0.114 0.329 4279630765
3.5650001 -0.11 0.109 4279630765
3.539 -0.109 0.15899999 4279630765
3.5220001 -0.108 0.20900001 4279630765
3.4979999 -0.107 0.25799999 4279630765
3.4679999 -0.106 0.30700001 4279630765
3.4460001 -0.104 0.35499999 4279630765
3.5669999 -0.101 0.085000001 4279630765
3.543 -0.1 0.13600001 4279630765
3.5250001 -0.098999999 0.186 4279630765
3.5 -0.097999997 0.236 4279630765
3.477 -0.097000003 0.285 4279630765
3.4560001 -0.094999999 0.333 4279630765
3.5699999 -0.092 0.061999999 4279630765
3.553 -0.090999998 0.113 4279630765
3.526 -0.090000004 0.163 4279630765
3.503 -0.088 0.213 4279630765
3.48 -0.086999997 0.26199999 4279630765
3.46 -0.086000003 0.31099999 4279630765
3.5769999 -0.082999997 0.039000001 4279630765
3.553 -0.082000002 0.090000004 4279630765
3.529 -0.079999998 0.141 4279630765
3.506 -0.079000004 0.191 4279630765
3.4909999 -0.078000002 0.241 4279630765
3.4630001 -0.075999998 0.289 4279630765
3.573 -0.074000001 0.016000001 4279630765
3.5450001 -0.071999997 0.067000002 4279630765
3.5239999 -0.07 0.118 4279630765
3.51 -0.068999998 0.168 4279630765
3.483 -0.068000004 0.21799999 4279630765
3.464 -0.066 0.26699999 4279630765
3.5599999 -0.063000001 -0.0060000001 4279630765
3.5420001 -0.061999999 0.044 4279630765
3.526 -0.061000001 0.094999999 4279630765
3.507 -0.059 0.146 4279630765
3.4849999 -0.057 0.19599999 4279630765
3.4630001 -0.056000002 0.245 4279630765
3.5840001 -0.054000001 -0.028999999 4279630765
3.5339999 -0.052000001 0.022 4279630765
3.5209999 -0.050000001 0.072999999 4279630765
3.5079999 -0.048999999 0.124 4279630765
3.483 -0.046999998 0.17399999 4279630765
3.4649999 -0.045000002 0.223 4279630765
3.5910001 -0.043000001 -0.052000001 4279630765
3.5409999 -0.041000001 0 4279630765
3.526 -0.039999999 0.050999999 4279630765
3.5109999 -0.037999999 0.102 4279630765
3.477 -0.035999998 0.152 4279630765
3.464 -0.035 0.20200001 4279630765
3.596 -0.033 -0.074000001 4279630765
3.55 -0.030999999 -0.021 4279630765
3.53 -0.028999999 0.028999999 4279630765
3.5109999 -0.027000001 0.079999998 4279630765
3.483 -0.025 0.13 4279630765
3.457 -0.024 0.18000001 4279630765
3.595 -0.022 -0.097000003 4279630765
3.55 -0.02 -0.044 4279630765
3.5139999 -0.017999999 0.0070000002 4279630765
3.5139999 -0.016000001 0.057999998 4279630765
3.4820001 -0.014 0.109 4279630765
3.457 -0.012 0.15899999 4279630765
3.5940001 -0.011 -0.119 4279630765
3.575 -0.0089999996 -0.066 4279630765
3.5250001 -0.0070000002 -0.014 4279630765
3.5139999 -0.0049999999 0.037 4279630765
3.4849999 -0.003 0.086999997 4279630765
3.4590001 -0.001 0.13699999 4279630765
3.5840001 0 -0.141 4279630765
3.5669999 0.0020000001 -0.088 4279630765
3.5369999 0.0040000002 -0.035999998 4279630765
3.493 0.0060000001 0.015 4279630765
3.4920001 0.0080000004 0.066 4279630765
3.467 0.0099999998 0.117 4279630765
3.592 0.012 -0.164 4279630765
3.575 0.014 -0.111 4279630765
3.55 0.016000001 -0.057999998 4279630765
3.493 0.017999999 -0.0049999999 4279630765
3.487 0.02 0.045000002 4279630765
3.474 0.022 0.096000001 4279630765
3.585 0.024 -0.186 4279630765
3.5650001 0.026000001 -0.133 4279630765
3.5469999 0.028000001 -0.079000004 4279630765
3.5079999 0.029999999 -0.027000001 4279630765
3.474 0.032000002 0.024 4279630765
3.4679999 0.035 0.075000003 4279630765
3.5309999 0.035999998 -0.205 4279630765
3.5650001 0.039000001 -0.154 4279630765
3.55 0.041000001 -0.101 4279630765
3.5109999 0.043000001 -0.048 4279630765
3.4549999 0.046999998 0.054000001 4279630765
3.5739999 0.052000001 -0.176 4279630765
3.549 0.054000001 -0.122 4279630765
3.527 0.056000002 -0.068999998 4279630765
3.4679999 0.057 -0.017000001 4279630765
3.4519999 0.059999999 0.033 4279630765
3.55 0.064000003 -0.19599999 4279630765
3.5469999 0.067000002 -0.14399999 4279630765
3.5250001 0.068999998 -0.090000004 4279630765
3.4849999 0.071000002 -0.037 4279630765
3.448 0.071999997 0.013 4279630765
3.5109999 0.075999998 -0.215 4279630765
3.546 0.079999998 -0.164 4279630765
3.5250001 0.082000002 -0.111 4279630765
3.4909999 0.083999999 -0.057999998 4279630765
3.461 0.086000003 -0.0060000001 4279630765
3.549 0.093000002 -0.186 4279630765
3.5239999 0.096000001 -0.131 4279630765
3.4979999 0.097999997 -0.078000002 4279630765
3.467 0.1 -0.026000001 4279630765
3.5350001 0.107 -0.205 4279630765
3.523 0.109 -0.152 4279630765
3.497 0.111 -0.097999997 4279630765
3.467 0.113 -0.046 4279630765
3.4909999 0.119 -0.223 4279630765
3.5250001 0.123 -0.17200001 4279630765
3.5 0.125 -0.118 4279630765
3.4719999 0.127 -0.064999998 4279630765
3.5209999 0.138 -0.192 4279630765
3.4960001 0.139 -0.138 4279630765
3.467 0.141 -0.085000001 4279630765
3.517 0.152 -0.212 4279630765
3.4960001 0.154 -0.15800001 4279630765
3.4690001 0.156 -0.104 4279630765
3.4760001 0.16500001 -0.229 4279630765
3.5 0.169 -0.177 4279630765
3.4649999 0.17 -0.123 4279630765
3.493 0.184 -0.19599999 4279630765
3.464 0.185 -0.142 4279630765
3.4820001 0.198 -0.215 4279630765
3.4660001 0.20100001 -0.161 4279630765
3.47 0.213 -0.233 4279630765
3.4619999 0.21600001 -0.17900001 4279630765
3.427 0.226 -0.248 4279630765
3.457 0.23100001 -0.197 4279630765
3.454 0.24699999 -0.21600001 4279630765
3.454 0.26300001 -0.234 4279630765
3.428 0.27700001 -0.25 4279630765
3.4579999 0.296 -0.26899999 4279630765
3.3629999 0.235 -0.0020000001 4279630765
3.3740001 0.214 -0.012 4279630765
3.3629999 0.20999999 0.039000001 4279630765
3.395 0.19400001 -0.023 4279630765
3.375 0.19 0.028000001 4279630765
3.3559999 0.185 0.079999998 4279630765
3.4100001 0.17399999 -0.033 4279630765
3.392 0.169 0.017999999 4279630765
3.3770001 0.16500001 0.07 4279630765
3.3510001 0.161 0.121 4279630765
3.4389999 0.154 -0.044 4279630765
3.4130001 0.15000001 0.0070000002 4279630765
3.3940001 0.145 0.059 4279630765
3.372 0.141 0.11 4279630765
3.3510001 0.13699999 0.161 4279630765
3.4579999 0.134 -0.056000002 4279630765
3.4349999 0.13 -0.003 4279630765
3.418 0.126 0.048 4279630765
3.398 0.122 0.1 4279630765
3.3670001 0.117 0.15000001 4279630765
3.385 0.115 0.20299999 4279630765
3.477 0.114 -0.067000002 4279630765
3.454 0.11 -0.014 4279630765
3.4330001 0.105 0.037 4279630765
3.415 0.101 0.089000002 4279630765
3.3940001 0.097000003 0.14 4279630765
3.3729999 0.093000002 0.19 4279630765
3.497 0.093000002 -0.079999998 4279630765
3.4660001 0.089000002 -0.026000001 4279630765
3.4460001 0.085000001 0.025 4279630765
3.4349999 0.081 0.077 4279630765
3.4119999 0.077 0.12800001 4279630765
3.388 0.072999999 0.17900001 4279630765
3.5209999 0.071999997 -0.093000002 4279630765
3.49 0.068000004 -0.039000001 4279630765
3.4489999 0.064000003 0.013 4279630765
3.441 0.059999999 0.064999998 4279630765
3.4289999 0.057 0.117 4279630765
3.405 0.052999999 0.167 4279630765
3.5420001 0.050999999 -0.106 4279630765
3.5039999 0.046999998 -0.052000001 4279630765
3.4690001 0.039999999 0.052999999 4279630765
3.448 0.035999998 0.104 4279630765
3.4200001 0.033 0.155 4279630765
3.5669999 0.030999999 -0.119 4279630765
3.5350001 0.027000001 -0.064999998 4279630765
3.4920001 0.023 -0.012 4279630765
3.497 0.02 0.039999999 4279630765
3.4749999 0.016000001 0.092 4279630765
3.4419999 0.013 0.14300001 4279630765
3.586 0.0099999998 -0.133 4279630765
3.5669999 0.0060000001 -0.079000004 4279630765
3.5320001 0.003 -0.025 4279630765
3.5090001 0 0.027000001 4279630765
3.4979999 -0.003 0.079000004 4279630765
3.4719999 -0.0070000002 0.131 4279630765
3.608 -0.0099999998 -0.148 4279630765
3.5869999 -0.014 -0.093000002 4279630765
3.562 -0.017000001 -0.039000001 4279630765
3.52 -0.02 0.014 4279630765
3.5220001 -0.024 0.066 4279630765
3.4990001 -0.027000001 0.118 4279630765
3.6270001 -0.030999999 -0.162 4279630765
3.6059999 -0.035 -0.107 4279630765
3.582 -0.037999999 -0.052999999 4279630765
3.549 -0.041000001 0 4279630765
3.539 -0.044 0.052000001 4279630765
3.5190001 -0.048 0.105 4279630765
3.602 -0.052000001 -0.175 4279630765
3.6300001 -0.056000002 -0.122 4279630765
3.605 -0.059 -0.068000004 4279630765
3.573 -0.061999999 -0.014 4279630765
3.5569999 -0.064999998 0.037999999 4279630765
3.5420001 -0.068000004 0.090999998 4279630765
3.6470001 -0.077 -0.138 4279630765
3.6340001 -0.079999998 -0.082999997 4279630765
3.6159999 -0.082999997 -0.028999999 4279630765
3.5840001 -0.086000003 0.024 4279630765
3.573 -0.089000002 0.077 4279630765
3.6659999 -0.097999997 -0.153 4279630765
3.6589999 -0.101 -0.098999999 4279630765
3.6340001 -0.104 -0.044 4279630765
3.6129999 -0.107 0.0089999996 4279630765
3.5899999 -0.11 0.061999999 4279630765
3.6329999 -0.118 -0.167 4279630765
3.6800001 -0.123 -0.115 4279630765
3.6589999 -0.125 -0.059999999 4279630765
3.6329999 -0.12800001 -0.0049999999 4279630765
3.612 -0.13 0.046999998 4279630765
3.6989999 -0.14399999 -0.131 4279630765
3.677 -0.146 -0.075999998 4279630765
3.655 -0.149 -0.021 4279630765
3.6370001 -0.15099999 0.032000002 4279630765
3.6900001 -0.164 -0.146 4279630765
3.6930001 -0.167 -0.092 4279630765
3.6670001 -0.169 -0.037 4279630765
3.6389999 -0.171 0.016000001 4279630765
3.6689999 -0.186 -0.108 4279630765
3.6389999 -0.18799999 -0.052999999 4279630765
3.6159999 -0.19 0 4279630765
3.451 0.22499999 -0.23999999 4279630765
3.483 0.21699999 -0.22 4279630765
3.4809999 0.206 -0.198 4279630765
3.467 0.198 -0.23199999 4279630765
3.4809999 0.19599999 -0.176 4279630765
3.507 0.189 -0.213 4279630765
3.48 0.185 -0.154 4279630765
3.4990001 0.177 -0.191 4279630765
3.473 0.17299999 -0.132 4279630765
3.4849999 0.167 -0.226 4279630765
3.4979999 0.16500001 -0.169 4279630765
3.47 0.161 -0.111 4279630765
3.523 0.15700001 -0.207 4279630765
3.49 0.153 -0.148 4279630765
3.4719999 0.149 -0.090000004 4279630765
3.5220001 0.145 -0.186 4279630765
3.5 0.141 -0.127 4279630765
3.4760001 0.13699999 -0.068999998 4279630765
3.4949999 0.134 -0.221 4279630765
3.523 0.132 -0.16500001 4279630765
3.4979999 0.12800001 -0.106 4279630765
3.467 0.124 -0.048 4279630765
3.5380001 0.122 -0.20299999 4279630765
3.523 0.119 -0.14399999 4279630765
3.49 0.115 -0.085000001 4279630765
3.4679999 0.112 -0.027000001 4279630765
3.5420001 0.109 -0.182 4279630765
3.5179999 0.106 -0.123 4279630765
3.4909999 0.102 -0.064000003 4279630765
3.467 0.098999999 -0.0060000001 4279630765
3.507 0.097000003 -0.21699999 4279630765
3.539 0.096000001 -0.161 4279630765
3.5120001 0.092 -0.102 4279630765
3.484 0.089000002 -0.043000001 4279630765
3.457 0.086000003 0.013 4279630765
3.5480001 0.085000001 -0.2 4279630765
3.5450001 0.082000002 -0.141 4279630765
3.52 0.079000004 -0.082000002 4279630765
3.483 0.075000003 -0.023 4279630765
3.4560001 0.071999997 0.033 4279630765
3.5580001 0.071000002 -0.18000001 4279630765
3.5439999 0.068000004 -0.12 4279630765
3.5109999 0.064999998 -0.061000001 4279630765
3.4530001 0.061000001 -0.003 4279630765
3.4560001 0.059 0.052999999 4279630765
3.5569999 0.056000002 -0.15899999 4279630765
3.5450001 0.054000001 -0.1 4279630765
3.51 0.050000001 -0.041000001 4279630765
3.448 0.046999998 0.016000001 4279630765
3.454 0.045000002 0.072999999 4279630765
3.556 0.044 -0.198 4279630765
3.5699999 0.041999999 -0.139 4279630765
3.54 0.039000001 -0.079000004 4279630765
3.497 0.035999998 -0.02 4279630765
3.48 0.033 0.035999998 4279630765
3.467 0.030999999 0.093000002 4279630765
3.5869999 0.029999999 -0.17900001 4279630765
3.5699999 0.027000001 -0.119 4279630765
3.5450001 0.024 -0.059999999 4279630765
3.483 0.021 -0.001 4279630765
3.4890001 0.018999999 0.056000002 4279630765
3.474 0.016000001 0.113 4279630765
3.5940001 0.015 -0.16 4279630765
3.575 0.012 -0.1 4279630765
3.5480001 0.0089999996 -0.039999999 4279630765
3.516 0.0070000002 0.017999999 4279630765
3.4920001 0.0040000002 0.075999998 4279630765
3.4590001 0.0020000001 0.132 4279630765
3.5910001 0 -0.14 4279630765
3.575 -0.0020000001 -0.079999998 4279630765
3.536 -0.0049999999 -0.02 4279630765
3.5209999 -0.0070000002 0.037 4279630765
3.493 -0.0099999998 0.094999999 4279630765
3.4630001 -0.012 0.152 4279630765
3.6070001 -0.015 -0.121 4279630765
3.576 -0.017999999 -0.061000001 4279630765
3.5179999 -0.02 -0.001 4279630765
3.5239999 -0.023 0.056000002 4279630765
3.5050001 -0.025 0.114 4279630765
3.471 -0.027000001 0.171 4279630765
3.609 -0.030999999 -0.102 4279630765
3.5780001 -0.034000002 -0.041000001 4279630765
3.55 -0.035999998 0.017000001 4279630765
3.527 -0.037999999 0.075999998 4279630765
3.493 -0.039999999 0.133 4279630765
3.4749999 -0.043000001 0.191 4279630765
3.612 -0.048 -0.082999997 4279630765
3.575 -0.050000001 -0.022 4279630765
3.5480001 -0.052000001 0.035999998 4279630765
3.526 -0.054000001 0.094999999 4279630765
3.4909999 -0.056000002 0.152 4279630765
3.4809999 -0.057999998 0.20999999 4279630765
3.6110001 -0.064000003 -0.063000001 4279630765
3.5669999 -0.066 -0.003 4279630765
3.563 -0.068000004 0.055 4279630765
3.53 -0.07 0.114 4279630765
3.5109999 -0.071999997 0.17200001 4279630765
3.497 -0.074000001 0.23 4279630765
3.6140001 -0.081 -0.045000002 4279630765
3.5929999 -0.082999997 0.014 4279630765
3.5650001 -0.085000001 0.074000001 4279630765
3.539 -0.086999997 0.133 4279630765
3.5220001 -0.089000002 0.191 4279630765
3.4979999 -0.090999998 0.248 4279630765
3.622 -0.097999997 -0.026000001 4279630765
3.596 -0.1 0.033 4279630765
3.572 -0.101 0.092 4279630765
3.5439999 -0.103 0.15099999 4279630765
3.5209999 -0.105 0.20900001 4279630765
3.497 -0.107 0.26699999 4279630765
3.6270001 -0.115 -0.0080000004 4279630765
3.602 -0.117 0.052000001 4279630765
3.575 -0.118 0.111 4279630765
3.5420001 -0.12 0.169 4279630765
3.5280001 -0.122 0.228 4279630765
3.5090001 -0.124 0.28600001 4279630765
3.628 -0.132 0.0089999996 4279630765
3.605 -0.134 0.07 4279630765
3.579 -0.13600001 0.13 4279630765
3.556 -0.138 0.18799999 4279630765
3.53 -0.139 0.24699999 4279630765
3.506 -0.141 0.30399999 4279630765
3.6300001 -0.15000001 0.028000001 4279630765
3.6070001 -0.152 0.088 4279630765
3.5829999 -0.154 0.148 4279630765
3.559 -0.155 0.207 4279630765
3.5350001 -0.15700001 0.26499999 4279630765
3.516 -0.15899999 0.324 4279630765
3.631 -0.168 0.046 4279630765
3.595 -0.169 0.106 4279630765
3.5650001 -0.17 0.16500001 4279630765
3.5409999 -0.17200001 0.223 4279630765
3.523 -0.17399999 0.28200001 4279630765
3.4990001 -0.176 0.34 4279630765
3.598 -0.185 0.063000001 4279630765
3.5669999 -0.186 0.122 4279630765
3.5339999 -0.18700001 0.18099999 4279630765
3.5090001 -0.18799999 0.23899999 4279630765
3.484 -0.189 0.296 4279630765
3.4590001 -0.191 0.35299999 4279630765
3.641 -0.193 -0.07 4279630765
3.6210001 -0.18799999 -0.0099999998 4279630765
3.6860001 -0.178 -0.117 4279630765
3.6619999 -0.17299999 -0.056000002 4279630765
3.648 -0.169 0.0040000002 4279630765
3.698 -0.15700001 -0.102 4279630765
3.6689999 -0.153 -0.041000001 4279630765
3.6400001 -0.149 0.018999999 4279630765
3.687 -0.14 -0.148 4279630765
3.675 -0.13600001 -0.086000003 4279630765
3.6440001 -0.132 -0.025 4279630765
3.6170001 -0.127 0.034000002 4279630765
3.6830001 -0.119 -0.131 4279630765
3.6559999 -0.115 -0.07 4279630765
3.6229999 -0.111 -0.0089999996 4279630765
3.599 -0.107 0.048999999 4279630765
3.6619999 -0.098999999 -0.114 4279630765
3.628 -0.094999999 -0.052999999 4279630765
3.596 -0.090999998 0.0060000001 4279630765
3.573 -0.086999997 0.064000003 4279630765
3.6559999 -0.082000002 -0.15899999 4279630765
3.6400001 -0.079000004 -0.097999997 4279630765
3.609 -0.075000003 -0.037 4279630765
3.5780001 -0.071000002 0.021 4279630765
3.55 -0.067000002 0.079999998 4279630765
3.642 -0.061999999 -0.141 4279630765
3.6140001 -0.059 -0.079999998 4279630765
3.579 -0.055 -0.021 4279630765
3.5439999 -0.050999999 0.037 4279630765
3.5209999 -0.048 0.094999999 4279630765
3.5940001 -0.046 -0.182 4279630765
3.619 -0.043000001 -0.124 4279630765
3.592 -0.039000001 -0.063000001 4279630765
3.5480001 -0.035999998 -0.0040000002 4279630765
3.529 -0.032000002 0.052999999 4279630765
3.5050001 -0.028999999 0.11 4279630765
3.6259999 -0.027000001 -0.167 4279630765
3.5929999 -0.024 -0.106 4279630765
3.573 -0.02 -0.046 4279630765
3.5190001 -0.017000001 0.011 4279630765
3.507 -0.014 0.068999998 4279630765
3.483 -0.011 0.126 4279630765
3.6029999 -0.0080000004 -0.149 4279630765
3.5780001 -0.0049999999 -0.089000002 4279630765
3.539 -0.0020000001 -0.028999999 4279630765
3.506 0 0.028000001 4279630765
3.4820001 0.003 0.085000001 4279630765
3.451 0.0060000001 0.141 4279630765
3.5829999 0.0099999998 -0.13 4279630765
