# .PCD v0.7 - Point Cloud Data file format
VERSION 0.7
FIELDS x y z rgb
SIZE 4 4 4 4
TYPE F F F U
COUNT 1 1 1 1
WIDTH 1239
HEIGHT 1
VIEWPOINT 0 0 0 1 0 0 0
POINTS 1239
DATA ascii
4.9200001 0.26100001 -0.62300003 4290204786
4.849 0.25600001 -0.74599999 4290204786
4.888 0.25299999 -0.66900003 4290204786
4.8210001 0.243 -0.70899999 4290204786
4.8610001 0.23999999 -0.63200003 4290204786
4.8119998 0.23100001 -0.67500001 4290204786
4.802 0.219 -0.64099997 4290204786
4.9759998 0.214 -0.63099998 4290204786
4.1230001 1.47 -0.87800002 4278577990
4.1490002 1.4630001 -0.85699999 4278577990
4.1700001 1.454 -0.83499998 4278577990
4.1859999 1.452 -0.88599998 4278577990
4.2020001 1.448 -0.81400001 4278577990
4.217 1.4450001 -0.866 4278577990
4.2309999 1.4400001 -0.79400003 4278577990
4.2410002 1.434 -0.84399998 4278577990
4.2529998 1.4299999 -0.77100003 4278577990
4.2480001 1.427 -0.89399999 4278577990
4.2789998 1.428 -0.82499999 4278577990
4.2849998 1.4220001 -0.75099999 4278577990
4.303 1.426 -0.87900001 4278577990
4.3039999 1.4170001 -0.80299997 4278577990
4.3060002 1.41 -0.72899997 4278577990
4.335 1.416 -0.85799998 4278577990
4.3400002 1.409 -0.78299999 4278577990
4.3369999 1.4 -0.708 4278577990
4.3049998 1.3940001 -0.90200001 4278577990
4.3590002 1.403 -0.83700001 4278577990
4.3579998 1.3940001 -0.76099998 4278577990
4.3649998 1.3890001 -0.68699998 4278577990
4.3920002 1.401 -0.89399999 4278577990
4.402 1.395 -0.81900001 4278577990
4.3979998 1.386 -0.74199998 4278577990
4.4070001 1.381 -0.66799998 4278577990
4.4289999 1.391 -0.875 4278577990
4.4380002 1.385 -0.79900002 4278577990
4.4400001 1.377 -0.72299999 4278577990
4.6090002 1.4220001 -0.67199999 4278577990
4.4640002 1.3789999 -0.85500002 4278577990
4.474 1.374 -0.77999997 4278577990
4.4759998 1.367 -0.70300001 4278577990
4.4660001 1.3660001 -0.90799999 4278577990
4.5050001 1.369 -0.83700001 4278577990
4.5110002 1.362 -0.75999999 4278577990
4.5019999 1.352 -0.68199998 4278577990
4.539 1.364 -0.89700001 4278577990
4.5510001 1.36 -0.81999999 4278577990
4.5500002 1.351 -0.74199998 4278577990
4.625 1.3660001 -0.67500001 4278577990
4.586 1.354 -0.88 4278577990
4.5900002 1.347 -0.801 4278577990
4.5949998 1.341 -0.72299999 4278577990
4.6690001 1.355 -0.65600002 4278577990
4.6240001 1.341 -0.861 4278577990
4.6329999 1.335 -0.78299999 4278577990
4.6300001 1.327 -0.70300001 4278577990
4.631 1.3200001 -0.625 4278577990
4.6409998 1.329 -0.91900003 4278577990
4.6750002 1.322 -0.76499999 4278577990
4.6810002 1.316 -0.68599999 4278577990
4.6729999 1.308 -0.60600001 4278577990
4.711 1.323 -0.90700001 4278577990
4.7220001 1.303 -0.667 4278577990
4.7600002 1.3099999 -0.88999999 4278577990
4.743 1.3099999 -0.912 4278577990
4.7080002 1.301 -0.653 4278577990
4.678 1.326 -0.90899998 4278577990
4.658 1.3200001 -0.73799998 4278577990
4.665 1.322 -0.65600002 4278577990
4.6160002 1.3430001 -0.90700001 4278577990
4.6079998 1.34 -0.82099998 4278577990
4.5949998 1.335 -0.736 4278577990
4.6799998 1.36 -0.667 4278577990
4.5469999 1.357 -0.90200001 4278577990
4.5500002 1.3559999 -0.81999999 4278577990
4.5339999 1.351 -0.73500001 4278577990
4.6550002 1.387 -0.67199999 4278577990
4.493 1.374 -0.89999998 4278577990
4.487 1.3710001 -0.81699997 4278577990
4.4749999 1.3660001 -0.73299998 4278577990
4.6220002 1.411 -0.67400002 4278577990
4.428 1.388 -0.89499998 4278577990
4.4260001 1.385 -0.81300002 4278577990
4.4070001 1.378 -0.72899997 4278577990
4.4050002 1.376 -0.64899999 4278577990
4.3699999 1.402 -0.89099997 4278577990
4.3649998 1.399 -0.80900002 4278577990
4.355 1.3940001 -0.727 4278577990
4.3439999 1.39 -0.64700001 4278577990
4.3260002 1.421 -0.889 4278577990
4.3109999 1.414 -0.80500001 4278577990
4.3039999 1.41 -0.72500002 4278577990
4.3249998 1.416 -0.64999998 4278577990
4.2690001 1.4349999 -0.88300002 4278577990
4.2550001 1.428 -0.801 4278577990
4.3379998 1.452 -0.65700001 4278577990
4.2119999 1.449 -0.87699997 4278577990
4.2049999 1.444 -0.79699999 4278577990
4.3140001 1.477 -0.65899998 4278577990
4.158 1.4630001 -0.87099999 4278577990
4.152 1.457 -0.792 4278577990
4.277 1.497 -0.65799999 4278577990
4.1110001 1.478 -0.866 4278577990
4.105 1.472 -0.787 4278577990
7.8379998 -0.95099998 0.227 4283597594
7.8439999 -0.90700001 0.19400001 4283597594
7.8169999 -0.89600003 0.30899999 4283597594
7.8610001 -0.86299998 0.163 4283597594
7.8660002 -0.85500002 0.278 4283597594
7.8829999 -0.81999999 0.132 4283597594
7.8990002 -0.81300002 0.249 4283597594
7.9239998 -0.76899999 0.21799999 4283597594
7.9450002 -0.76200002 0.336 4283597594
7.9229999 -0.73000002 0.071000002 4283597594
7.941 -0.72299999 0.18799999 4283597594
7.9650002 -0.71700001 0.30700001 4283597594
7.9450002 -0.68400002 0.041000001 4283597594
7.96 -0.67699999 0.15899999 4283597594
7.98 -0.671 0.278 4283597594
7.974 -0.63099998 0.13 4283597594
7.9980001 -0.62400001 0.249 4283597594
8 -0.58399999 0.101 4283597594
8.0229998 -0.57700002 0.221 4283597594
7.9489999 -0.54100001 -0.044 4283597594
8.0410004 -0.52899998 0.19400001 4283597594
8.0530005 -0.52200001 0.31400001 4283597594
8.0190001 -0.54299998 0.153 4283597594
8.0369997 -0.55500001 0.28099999 4283597594
7.9889998 -0.58499998 0.029999999 4283597594
8 -0.597 0.15800001 4283597594
8.0190001 -0.61000001 0.28600001 4283597594
7.9749999 -0.65100002 0.162 4283597594
7.9990001 -0.66500002 0.28999999 4283597594
7.9380002 -0.69199997 0.039000001 4283597594
7.9520001 -0.70499998 0.16599999 4283597594
7.9660001 -0.71799999 0.29300001 4283597594
7.921 -0.75800002 0.169 4283597594
7.9299998 -0.76999998 0.296 4283597594
7.8839998 -0.81 0.171 4283597594
7.8940001 -0.82300001 0.29699999 4283597594
7.8610001 -0.86400002 0.17299999 4283597594
7.842 -0.87400001 0.29800001 4283597594
7.8579998 -0.91900003 0.17399999 4283597594
7.8449998 -0.92900002 0.29899999 4283597594
7.8309999 -0.93400002 0.211 4283597594
7.8260002 -0.92299998 0.331 4283597594
7.848 -0.88200003 0.198 4283597594
7.8769999 -0.82999998 0.185 4283597594
7.8930001 -0.82200003 0.30700001 4283597594
7.908 -0.77999997 0.17299999 4283597594
7.9349999 -0.77200001 0.29499999 4283597594
7.9390001 -0.72799999 0.161 4283597594
7.9640002 -0.72000003 0.28400001 4283597594
7.954 -0.67500001 0.15000001 4283597594
7.9829998 -0.667 0.273 4283597594
7.9860001 -0.62300003 0.139 4283597594
8.0120001 -0.61500001 0.264 4283597594
7.9510002 -0.57599998 0.0060000001 4283597594
8.0050001 -0.56900001 0.12899999 4283597594
8.0299997 -0.56099999 0.25400001 4283597594
7.9460001 -0.53799999 -0.029999999 4283597594
8.0229998 -0.56599998 0.215 4283597594
7.9759998 -0.60600001 0.078000002 4283597594
8.0109997 -0.62 0.20100001 4283597594
7.9569998 -0.65899998 0.064000003 4283597594
7.974 -0.671 0.18700001 4283597594
7.9299998 -0.71100003 0.050000001 4283597594
7.9460001 -0.72299999 0.171 4283597594
7.9060001 -0.77399999 0.155 4283597594
7.882 -0.82499999 0.139 4283597594
7.8920002 -0.90399998 0.149 4283597594
7.8699999 -0.84500003 0.153 4283597594
7.8959999 -0.79299998 0.15899999 4283597594
7.9239998 -0.74000001 0.16500001 4283597594
7.9390001 -0.69700003 0.045000002 4283597594
7.96 -0.68800002 0.17299999 4283597594
7.9710002 -0.64399999 0.052000001 4283597594
7.994 -0.63499999 0.18000001 4283597594
7.994 -0.59100002 0.059999999 4283597594
8.0170002 -0.58200002 0.189 4283597594
7.9510002 -0.542 -0.057999998 4283597594
8.0489998 -0.528 0.198 4283597594
7.9450002 -0.55000001 -0.003 4283597594
7.9530001 -0.551 -0.016000001 4283597594
8.0600004 -0.52700001 0.32600001 4283597594
8.0209999 -0.56400001 0.221 4283597594
7.9840002 -0.60100001 0.116 4283597594
8.0089998 -0.61199999 0.25 4283597594
7.9650002 -0.648 0.14399999 4283597594
7.9860001 -0.65799999 0.278 4283597594
7.9499998 -0.69499999 0.171 4283597594
7.974 -0.70499998 0.30500001 4283597594
7.9229999 -0.74000001 0.198 4283597594
7.9429998 -0.75099999 0.331 4283597594
7.8979998 -0.787 0.223 4283597594
7.8709998 -0.83200002 0.248 4283597594
7.8470001 -0.87900001 0.27200001 4283597594
7.8340001 -0.926 0.296 4283597594
7.9289999 -0.75300002 0.45300001 4288617453
7.987 -0.71100003 0.426 4288617453
8 -0.66399997 0.398 4288617453
7.7659998 -0.63 0.61799997 4288617453
8.0229998 -0.61799997 0.37 4288617453
7.7779999 -0.583 0.59100002 4288617453
8.0389996 -0.56999999 0.34200001 4288617453
7.9439998 -0.55500001 0.45699999 4288617453
7.7969999 -0.537 0.565 4288617453
7.9510002 -0.50700003 0.43000001 4288617453
7.8189998 -0.491 0.54000002 4288617453
7.961 -0.45899999 0.403 4288617453
7.8299999 -0.44299999 0.51499999 4288617453
7.8369999 -0.39500001 0.48899999 4288617453
7.848 -0.347 0.465 4288617453
7.9910002 -0.39500001 0.38600001 4288617453
7.9679999 -0.44999999 0.39300001 4288617453
7.9990001 -0.50700003 0.40099999 4288617453
8.0279999 -0.565 0.40900001 4288617453
8.026 -0.62199998 0.414 4288617453
8 -0.67699999 0.41800001 4288617453
7.9710002 -0.73000002 0.421 4288617453
7.9400001 -0.76200002 0.41800001 4288617453
7.9829998 -0.71200001 0.40799999 4288617453
8.0089998 -0.65899998 0.398 4288617453
8.0319996 -0.60600001 0.38800001 4288617453
8.0559998 -0.55199999 0.37900001 4288617453
8.0430002 -0.49599999 0.36899999 4288617453
7.7969999 -0.255 0.514 4288617453
7.7519999 -0.27500001 0.56099999 4288617453
7.7930002 -0.289 0.49700001 4288617453
7.7550001 -0.31999999 0.53899997 4288617453
7.849 -0.354 0.456 4288617453
7.7290001 -0.35299999 0.57999998 4288617453
7.8249998 -0.38699999 0.49700001 4288617453
7.7020001 -0.38600001 0.62099999 4288617453
7.928 -0.42300001 0.41100001 4288617453
7.7919998 -0.41999999 0.537 4288617453
7.6869998 -0.419 0.662 4288617453
7.882 -0.456 0.45100001 4288617453
8.0430002 -0.498 0.366 4288617453
7.8600001 -0.491 0.49200001 4288617453
7.7270002 -0.48699999 0.616 4288617453
7.9970002 -0.53200001 0.40599999 4288617453
7.8249998 -0.52499998 0.52999997 4288617453
7.948 -0.56599998 0.44400001 4288617453
7.7880001 -0.55900002 0.56800002 4288617453
7.7579999 -0.59500003 0.60600001 4288617453
7.711 -0.59799999 0.64899999 4288617453
7.7480001 -0.57700002 0.60299999 4288617453
7.8000002 -0.55699998 0.55800003 4288617453
7.842 -0.53600001 0.51200002 4288617453
7.737 -0.528 0.616 4288617453
7.8870001 -0.51300001 0.46599999 4288617453
7.7690001 -0.505 0.57099998 4288617453
7.9419999 -0.491 0.41999999 4288617453
7.8210001 -0.48199999 0.52600002 4288617453
7.7150002 -0.47400001 0.63 4288617453
8.007 -0.46799999 0.375 4288617453
7.855 -0.45699999 0.47999999 4288617453
7.9120002 -0.433 0.435 4288617453
7.7909999 -0.42399999 0.54100001 4288617453
7.6830001 -0.41600001 0.64600003 4288617453
7.96 -0.40700001 0.38999999 4288617453
7.829 -0.398 0.49599999 4288617453
7.7280002 -0.38999999 0.602 4288617453
7.8559999 -0.37 0.45100001 4288617453
7.7529998 -0.36199999 0.55800003 4288617453
7.7989998 -0.33500001 0.51499999 4288617453
7.8179998 -0.30599999 0.47099999 4288617453
7.7329998 -0.30000001 0.579 4288617453
7.7550001 -0.27000001 0.53600001 4288617453
7.7779999 -0.26199999 0.51700002 4288617453
7.7550001 -0.30500001 0.54799998 4288617453
7.8520002 -0.34599999 0.45699999 4288617453
7.743 -0.34900001 0.57999998 4288617453
7.835 -0.391 0.48800001 4288617453
7.7259998 -0.39300001 0.61000001 4288617453
7.9549999 -0.435 0.39399999 4288617453
7.8150001 -0.43599999 0.51800001 4288617453
7.6999998 -0.43700001 0.639 4288617453
7.9439998 -0.48100001 0.42399999 4288617453
7.7979999 -0.48100001 0.54699999 4288617453
7.921 -0.52700001 0.45300001 4288617453
7.7810001 -0.52600002 0.57599998 4288617453
8.0389996 -0.574 0.35600001 4288617453
7.757 -0.57099998 0.60399997 4288617453
8.0190001 -0.62099999 0.384 4288617453
7.7449999 -0.61699998 0.63200003 4288617453
8 -0.66799998 0.412 4288617453
7.9689999 -0.71399999 0.43900001 4288617453
4.0289998 -1.2460001 2.0969999 4293702337
4.0630002 -1.268 2.092 4293702337
4.0609999 -1.278 2.0680001 4293702337
4.1110001 -1.3049999 2.0699999 4293702337
4.0240002 -1.308 2.096 4293702337
4.0489998 -1.325 2.0829999 4293702337
4.0599999 -1.337 2.062 4293702337
4.3439999 -1.416 2.0799999 4293702337
4.3449998 -1.423 2.052 4293702337
4.0349998 -1.365 2.089 4293702337
4.0359998 -1.37 2.0610001 4293702337
4.3280001 -1.451 2.082 4293702337
4.336 -1.459 2.0550001 4293702337
4.0289998 -1.399 2.092 4293702337
4.0320001 -1.403 2.063 4293702337
4.322 -1.483 2.0810001 4293702337
4.329 -1.487 2.052 4293702337
4.0279999 -1.428 2.0899999 4293702337
4.026 -1.428 2.0569999 4293702337
4.3189998 -1.508 2.075 4293702337
4.3200002 -1.507 2.0420001 4293702337
4.02 -1.446 2.079 4293702337
4.0419998 -1.451 2.056 4293702337
4.3169999 -1.523 2.0639999 4293702337
4.349 -1.531 2.043 4293702337
4.289 -1.527 2.0710001 4293702337
4.3119998 -1.53 2.046 4293702337
4.3039999 -1.071 2.079 4293702337
4.2680001 -1.089 2.0739999 4293702337
4.256 -1.113 2.0799999 4293702337
4.2519999 -1.14 2.0880001 4293702337
4.243 -1.166 2.0940001 4293702337
4.2350001 -1.191 2.099 4293702337
4.2119999 -1.212 2.096 4293702337
4.1820002 -1.2309999 2.0880001 4293702337
4.1599998 -1.252 2.0840001 4293702337
4.131 -1.27 2.075 4293702337
4.112 -1.291 2.0699999 4293702337
4.0949998 -1.312 2.0650001 4293702337
4.0869999 -1.336 2.0650001 4293702337
4.0760002 -1.359 2.0610001 4293702337
4.073 -1.385 2.0610001 4293702337
4.066 -1.408 2.0580001 4293702337
4.0650001 -1.433 2.0569999 4293702337
4.0749998 -1.462 2.0599999 4293702337
4.0749998 -1.488 2.0580001 4293702337
4.0929999 -1.5190001 2.0639999 4293702337
4.1079998 -1.549 2.0669999 4293702337
4.1230001 -1.579 2.0699999 4293702337
4.125 -1.603 2.0639999 4293702337
4.1279998 -1.628 2.059 4293702337
4.1279998 -1.651 2.0510001 4293702337
4.1269999 -1.6720001 2.0409999 4293702337
4.119 -1.691 2.0280001 4293702337
4.0609999 -1.775 2.0539999 4293702337
4.0799999 -1.801 2.049 4293702337
4.0770001 -1.818 2.0320001 4293702337
4.0929999 -1.842 2.023 4293702337
4.046 -1.896 2.0469999 4293702337
4.0489998 -1.911 2.0280001 4293702337
4.0700002 -1.934 2.017 4293702337
4.0089998 -1.957 2.0420001 4293702337
4.0380001 -1.9809999 2.0320001 4293702337
4.0419998 -1.992 2.0090001 4293702337
3.993 -2.0120001 2.0309999 4293702337
3.977 -2.0090001 1.9960001 4293702337
4.3670001 -1.442 2.0480001 4293702337
4.3400002 -1.467 2.05 4293702337
4.323 -1.495 2.056 4293702337
4.3150001 -1.526 2.0650001 4293702337
4.2940001 -1.553 2.0669999 4293702337
4.2620001 -1.575 2.063 4293702337
4.2210002 -1.594 2.0539999 4293702337
4.1810002 -1.612 2.0439999 4293702337
4.1500001 -1.6339999 2.0380001 4293702337
4.1279998 -1.658 2.036 4293702337
4.1139998 -1.686 2.036 4293702337
4.105 -1.715 2.039 4293702337
4.1009998 -1.7460001 2.0420001 4293702337
4.0910001 -1.775 2.043 4293702337
4.0840001 -1.8049999 2.043 4293702337
4.073 -1.832 2.0409999 4293702337
4.0679998 -1.862 2.0409999 4293702337
4.0630002 -1.892 2.04 4293702337
4.053 -1.919 2.0350001 4293702337
4.0409999 -1.944 2.029 4293702337
4.0409999 -1.975 2.0280001 4293702337
4.0320001 -2.0009999 2.0209999 4293702337
4 -2.0150001 2.0020001 4293702337
9.3850002 -0.214 1.181 4282010261
9.3830004 -0.236 1.244 4282010261
9.3739996 -0.259 1.3049999 4282010261
9.3730001 -0.28299999 1.204 4282010261
9.3780003 -0.28299999 1.369 4282010261
9.3640003 -0.30700001 1.266 4282010261
9.3690004 -0.308 1.432 4282010261
9.3529997 -0.33199999 1.1619999 4282010261
9.3629999 -0.333 1.3279999 4282010261
9.3640003 -0.333 1.494 4282010261
9.349 -0.35800001 1.223 4282010261
9.3570004 -0.359 1.3890001 4282010261
9.3640003 -0.359 1.556 4282010261
9.401 -0.315 1.903 4282010261
9.3950005 -0.31900001 1.835 4282010261
9.3909998 -0.32300001 1.768 4282010261
9.3940001 -0.33500001 1.913 4282010261
9.3900003 -0.32699999 1.701 4282010261
9.3920002 -0.338 1.845 4282010261
9.3879995 -0.329 1.633 4282010261
9.3870001 -0.34 1.776 4282010261
9.3940001 -0.35100001 1.921 4282010261
9.3730001 -0.33000001 1.564 4282010261
9.3809996 -0.34 1.7079999 4282010261
9.3809996 -0.35100001 1.851 4282010261
9.375 -0.331 1.499 4282010261
9.382 -0.34 1.641 4282010261
9.3780003 -0.34999999 1.783 4282010261
9.382 -0.36000001 1.928 4282010261
9.368 -0.33000001 1.431 4282010261
9.3800001 -0.34 1.574 4282010261
9.3739996 -0.34900001 1.715 4282010261
9.3789997 -0.359 1.859 4282010261
9.3649998 -0.329 1.365 4282010261
9.3760004 -0.338 1.507 4282010261
9.3780003 -0.347 1.649 4282010261
9.3839998 -0.35600001 1.793 4282010261
9.3800001 -0.36500001 1.936 4282010261
9.3599997 -0.32699999 1.299 4282010261
9.3690004 -0.33500001 1.4400001 4282010261
9.375 -0.34400001 1.581 4282010261
9.3769999 -0.352 1.724 4282010261
9.3760004 -0.361 1.867 4282010261
9.3549995 -0.324 1.232 4282010261
9.3649998 -0.33199999 1.372 4282010261
9.3710003 -0.34 1.513 4282010261
9.3730001 -0.34799999 1.655 4282010261
9.3769999 -0.35600001 1.798 4282010261
9.375 -0.36399999 1.942 4282010261
9.3540001 -0.32100001 1.1670001 4282010261
9.3610001 -0.32800001 1.306 4282010261
9.3669996 -0.336 1.446 4282010261
9.3699999 -0.34299999 1.5880001 4282010261
9.3719997 -0.35100001 1.73 4282010261
9.3780003 -0.35800001 1.874 4282010261
9.3570004 -0.32300001 1.239 4282010261
9.3610001 -0.33000001 1.3789999 4282010261
9.3699999 -0.33700001 1.52 4282010261
9.3710003 -0.34400001 1.661 4282010261
9.3800001 -0.35100001 1.806 4282010261
9.3529997 -0.317 1.173 4282010261
9.3620005 -0.324 1.312 4282010261
9.3649998 -0.33000001 1.452 4282010261
9.3669996 -0.33700001 1.5930001 4282010261
9.3800001 -0.34299999 1.737 4282010261
9.3620005 -0.317 1.2460001 4282010261
9.3660002 -0.32300001 1.385 4282010261
9.3669996 -0.329 1.526 4282010261
9.375 -0.33500001 1.668 4282010261
9.3620005 -0.30899999 1.1799999 4282010261
9.3690004 -0.315 1.319 4282010261
9.368 -0.31999999 1.459 4282010261
9.375 -0.32499999 1.6 4282010261
9.3649998 -0.30500001 1.252 4282010261
9.3640003 -0.31 1.391 4282010261
9.3739996 -0.315 1.533 4282010261
9.3629999 -0.29499999 1.186 4282010261
9.3660002 -0.30000001 1.326 4282010261
9.3739996 -0.30399999 1.466 4282010261
9.3699999 -0.289 1.2589999 4282010261
9.3730001 -0.292 1.399 4282010261
9.368 -0.27700001 1.193 4282010261
9.3699999 -0.28 1.332 4282010261
9.375 -0.266 1.266 4282010261
9.3789997 -0.25299999 1.202 4282010261
8.9610004 0.44800001 1.42 4287095145
8.9090004 0.46399999 1.3839999 4287095145
8.8389997 0.47 1.526 4287095145
8.8610001 0.47499999 1.439 4287095145
8.7910004 0.48100001 1.58 4287095145
8.7270002 0.48699999 1.721 4287095145
8.8789997 0.47799999 1.352 4287095145
8.8120003 0.484 1.494 4287095145
8.7390003 0.49000001 1.633 4287095145
8.6759996 0.49700001 1.774 4287095145
8.8360004 0.486 1.4069999 4287095145
8.7629995 0.49200001 1.5470001 4287095145
8.6929998 0.498 1.687 4287095145
8.6389999 0.50599998 1.829 4287095145
8.8610001 0.48800001 1.322 4287095145
8.7919998 0.49399999 1.4630001 4287095145
8.7150002 0.5 1.602 4287095145
8.6529999 0.50599998 1.742 4287095145
8.5939999 0.514 1.883 4287095145
8.8199997 0.49399999 1.378 4287095145
8.75 0.50099999 1.518 4287095145
8.6809998 0.50700003 1.658 4287095145
8.6169996 0.514 1.798 4287095145
8.5500002 0.52100003 1.937 4287095145
8.8459997 0.49399999 1.293 4287095145
8.7849998 0.50099999 1.434 4287095145
8.7130003 0.50700003 1.574 4287095145
8.6389999 0.51300001 1.712 4287095145
8.5760002 0.51999998 1.851 4287095145
8.5019999 0.52700001 1.988 4287095145
8.8199997 0.5 1.351 4287095145
8.75 0.50599998 1.4910001 4287095145
8.6789999 0.51300001 1.6289999 4287095145
8.6049995 0.51899999 1.767 4287095145
8.54 0.52600002 1.906 4287095145
8.4619999 0.53299999 2.0420001 4287095145
8.7819996 0.50400001 1.4069999 4287095145
8.7110004 0.50999999 1.546 4287095145
8.6420002 0.51700002 1.6849999 4287095145
8.5690002 0.52399999 1.822 4287095145
8.4989996 0.53100002 1.96 4287095145
8.7480001 0.50800002 1.4630001 4287095145
8.6789999 0.514 1.602 4287095145
8.6129999 0.52100003 1.7410001 4287095145
8.5380001 0.528 1.878 4287095145
8.474 0.53600001 2.017 4287095145
8.7159996 0.51099998 1.5190001 4287095145
8.6540003 0.51800001 1.659 4287095145
8.5790005 0.52499998 1.796 4287095145
8.5100002 0.53200001 1.934 4287095145
8.4049997 0.537 2.063 4287095145
8.6920004 0.51300001 1.576 4287095145
8.6260004 0.51999998 1.715 4287095145
8.559 0.528 1.854 4287095145
8.4860001 0.53500003 1.9910001 4287095145
8.6689997 0.51499999 1.6339999 4287095145
8.6040001 0.523 1.773 4287095145
8.5290003 0.52999997 1.91 4287095145
8.4569998 0.537 2.0469999 4287095145
8.6479998 0.51599997 1.691 4287095145
8.5819998 0.52399999 1.83 4287095145
8.5139999 0.53100002 1.969 4287095145
8.6269999 0.51700002 1.749 4287095145
8.559 0.52399999 1.888 4287095145
8.4899998 0.53200001 2.0250001 4287095145
8.6120005 0.51700002 1.808 4287095145
8.5410004 0.52399999 1.946 4287095145
8.4069996 0.528 2.0680001 4287095145
8.599 0.51599997 1.867 4287095145
8.5319996 0.52399999 2.006 4287095145
8.5860004 0.514 1.926 4287095145
8.467 0.51899999 2.053 4287095145
8.3970003 0.49599999 2.0639999 4287095145
8.7189999 0.50800002 1.497 4287095145
8.8369999 0.491 1.322 4287095145
8.8269997 0.48199999 1.459 4287095145
8.9300003 0.456 1.42 4287095145
8.474 0.54400003 1.973 4287095145
8.552 0.51999998 1.937 4287095145
8.4469995 0.50199997 2.0539999 4287095145
4.7659998 -0.112 -0.671 4292114749
4.724 -0.116 -0.699 4292114749
4.711 -0.12 -0.73100001 4292114749
4.7849998 -0.119 -0.671 4292114749
4.6960001 -0.123 -0.76200002 4292114749
4.7290001 -0.121 -0.69700003 4292114749
4.697 -0.126 -0.796 4292114749
4.7059999 -0.124 -0.727 4292114749
4.783 -0.123 -0.66799998 4292114749
4.7220001 -0.13 -0.83499998 4292114749
4.6999998 -0.126 -0.75999999 4292114749
4.7319999 -0.124 -0.69499999 4292114749
4.7680001 -0.134 -0.87800002 4292114749
4.7010002 -0.12899999 -0.79500002 4292114749
4.71 -0.125 -0.72500002 4292114749
4.7880001 -0.124 -0.66600001 4292114749
4.8390002 -0.138 -0.92699999 4292114749
4.7249999 -0.131 -0.833 4292114749
4.6999998 -0.127 -0.75800002 4292114749
4.7319999 -0.124 -0.69199997 4292114749
4.9219999 -0.142 -0.97899997 4292114749
4.7709999 -0.134 -0.87599999 4292114749
4.6989999 -0.12800001 -0.79100001 4292114749
4.7140002 -0.124 -0.72299999 4292114749
4.7880001 -0.122 -0.66299999 4292114749
4.842 -0.13699999 -0.92400002 4292114749
4.724 -0.12899999 -0.829 4292114749
4.698 -0.124 -0.75400001 4292114749
4.7259998 -0.121 -0.68699998 4292114749
4.915 -0.139 -0.97399998 4292114749
4.7649999 -0.131 -0.87099999 4292114749
4.7020001 -0.125 -0.78799999 4292114749
4.7179999 -0.121 -0.72000003 4292114749
4.8049998 -0.118 -0.662 4292114749
4.8369999 -0.133 -0.91900003 4292114749
4.723 -0.125 -0.82499999 4292114749
4.7020001 -0.12 -0.75099999 4292114749
4.7389998 -0.116 -0.685 4292114749
4.9099998 -0.134 -0.96799999 4292114749
4.7600002 -0.125 -0.866 4292114749
4.698 -0.118 -0.78299999 4292114749
4.7150002 -0.114 -0.71499997 4292114749
4.8189998 -0.125 -0.91100001 4292114749
4.7179999 -0.118 -0.81999999 4292114749
4.7030001 -0.112 -0.74599999 4292114749
4.8790002 -0.125 -0.95700002 4292114749
4.7529998 -0.117 -0.85900003 4292114749
4.7049999 -0.11 -0.77899998 4292114749
4.8049998 -0.116 -0.903 4292114749
4.7140002 -0.108 -0.81400001 4292114749
4.855 -0.114 -0.94700003 4292114749
4.7420001 -0.106 -0.852 4292114749
4.7930002 -0.103 -0.89499998 4292114749
4.8800001 -0.101 -0.94599998 4292114749
4.7259998 -0.207 -0.85699999 4292114749
4.7010002 -0.206 -0.76700002 4292114749
4.7340002 -0.208 -0.68900001 4292114749
4.7030001 -0.192 -0.82099998 4292114749
4.6999998 -0.192 -0.736 4292114749
4.7470002 -0.18000001 -0.88200003 4292114749
4.6890001 -0.17900001 -0.787 4292114749
4.7199998 -0.18000001 -0.708 4292114749
4.7199998 -0.167 -0.84399998 4292114749
4.6929998 -0.16599999 -0.75599998 4292114749
4.7659998 -0.169 -0.68300003 4292114749
4.7030001 -0.154 -0.80900002 4292114749
4.711 -0.155 -0.727 4292114749
4.697 -0.142 -0.77600002 4292114749
4.7249999 -0.14300001 -0.69700003 4292114749
4.6939998 -0.131 -0.74299997 4292114749
4.7870002 -0.133 -0.67299998 4292114749
4.7199998 -0.12 -0.71499997 4292114749
4.7449999 -0.11 -0.68599999 4292114749
4.908 0.68199998 -0.81900001 4280422673
4.9089999 0.708 -0.84399998 4280422673
4.928 0.73299998 -0.954 4280422673
4.9250002 0.73699999 -0.87 4280422673
4.9109998 0.75700003 -0.97500002 4280422673
4.9219999 0.76300001 -0.89300001 4280422673
4.9330001 0.792 -0.91799998 4280422673
4.934 0.81999999 -0.94099998 4280422673
4.9250002 0.847 -0.96200001 4280422673
4.9809999 0.583 -0.57200003 4280422673
4.9419999 0.60699999 -0.588 4280422673
4.9369998 0.63200003 -0.68699998 4280422673
4.9460001 0.63700002 -0.60799998 4280422673
4.9310002 0.65799999 -0.78799999 4280422673
4.9390001 0.66299999 -0.70700002 4280422673
4.9439998 0.667 -0.62699997 4280422673
4.9390001 0.69 -0.80900002 4280422673
4.9349999 0.69300002 -0.72600001 4280422673
4.9380002 0.69700003 -0.64499998 4280422673
4.9390001 0.72100002 -0.829 4280422673
4.9520001 0.72600001 -0.74800003 4280422673
4.9380002 0.727 -0.66399997 4280422673
4.9320002 0.75099999 -0.84600002 4280422673
4.9439998 0.75599998 -0.76599997 4280422673
4.9380002 0.75800002 -0.68199998 4280422673
4.9229999 0.78100002 -0.86400002 4280422673
4.9439998 0.787 -0.78399998 4280422673
4.9499998 0.79100001 -0.70200002 4280422673
4.9419999 0.81599998 -0.88599998 4280422673
4.9510002 0.81999999 -0.80400002 4280422673
4.9489999 0.82300001 -0.72000003 4280422673
4.9380002 0.847 -0.903 4280422673
4.9510002 0.852 -0.82099998 4280422673
4.9590001 0.85600001 -0.73900002 4280422673
4.9460001 0.88599998 -0.75400001 4280422673
4.9520001 0.91900003 -0.77100003 4280422673
4.9299998 0.80199999 -0.96799999 4280422673
4.9089999 0.78600001 -0.93000001 4280422673
4.8759999 0.77700001 -0.97500002 4280422673
4.9239998 0.77600002 -0.89999998 4280422673
4.9289999 0.77200001 -0.95200002 4280422673
4.9109998 0.76099998 -0.86500001 4280422673
4.934 0.759 -0.92000002 4280422673
4.9200001 0.74900001 -0.83399999 4280422673
4.9320002 0.75199997 -0.972 4280422673
4.9369998 0.745 -0.88800001 4280422673
4.9109998 0.73299998 -0.80000001 4280422673
4.9429998 0.73900002 -0.94099998 4280422673
4.9419999 0.73100001 -0.85600001 4280422673
4.9369998 0.72299999 -0.77200001 4280422673
4.9359999 0.72299999 -0.90700001 4280422673
4.9349999 0.71499997 -0.82300001 4280422673
4.9310002 0.70700002 -0.74000001 4280422673
4.9320002 0.70700002 -0.87400001 4280422673
4.9320002 0.699 -0.79000002 4280422673
4.934 0.69300002 -0.708 4280422673
4.9359999 0.69099998 -0.84299999 4280422673
4.9180002 0.68199998 -0.75700003 4280422673
4.9120002 0.67400002 -0.67299998 4280422673
4.9239998 0.67299998 -0.80800003 4280422673
4.9299998 0.667 -0.72600001 4280422673
4.9289999 0.66000003 -0.64399999 4280422673
4.9219999 0.65600002 -0.77600002 4280422673
4.928 0.64999998 -0.69499999 4280422673
4.9260001 0.64300001 -0.61199999 4280422673
4.9400001 0.63499999 -0.66500002 4280422673
4.947 0.62900001 -0.58399999 4280422673
4.9380002 0.61699998 -0.634 4280422673
4.9369998 0.59899998 -0.60299999 4280422673
4.9390001 0.58200002 -0.57300001 4280422673
4.4239998 -1.456 2.0610001 4285507812
4.4829998 -1.4809999 2.0580001 4285507812
4.5089998 -1.495 2.04 4285507812
4.6110001 -1.533 2.0550001 4285507812
4.4099998 -1.488 2.059 4285507812
4.632 -1.544 2.0320001 4285507812
4.474 -1.513 2.0569999 4285507812
4.5110002 -1.528 2.0420001 4285507812
4.6149998 -1.564 2.0550001 4285507812
4.4159999 -1.5190001 2.0599999 4285507812
4.6259999 -1.569 2.026 4285507812
4.461 -1.535 2.0480001 4285507812
4.5440001 -1.563 2.0510001 4285507812
4.6069999 -1.5829999 2.0450001 4285507812
4.4439998 -1.549 2.0650001 4285507812
4.658 -1.599 2.0320001 4285507812
4.4689999 -1.5549999 2.0420001 4285507812
4.5749998 -1.589 2.0539999 4285507812
4.5929999 -1.591 2.0250001 4285507812
4.4549999 -1.564 2.0569999 4285507812
4.4879999 -1.571 2.0350001 4285507812
4.6020002 -1.604 2.049 4285507812
4.4169998 -1.5599999 2.0580001 4285507812
4.6350002 -1.609 2.026 4285507812
4.4580002 -1.567 2.039 4285507812
4.5689998 -1.599 2.052 4285507812
4.6059999 -1.603 2.029 4285507812
4.197 -1.766 2.0439999 4285507812
4.2290001 -1.799 2.0469999 4285507812
4.2389998 -1.824 2.0380001 4285507812
4.2389998 -1.842 2.023 4285507812
4.2579999 -1.869 2.017 4285507812
4.2030001 -1.924 2.0409999 4285507812
4.2090001 -1.942 2.0250001 4285507812
4.2189999 -1.961 2.0090001 4285507812
4.1550002 -1.9859999 2.036 4285507812
4.1820002 -2.01 2.026 4285507812
4.191 -2.0250001 2.007 4285507812
4.6690001 -1.449 2.039 4285507812
4.6339998 -1.473 2.039 4285507812
4.4320002 -1.429 2.063 4285507812
4.6230001 -1.505 2.05 4285507812
4.5939999 -1.531 2.052 4285507812
4.5580001 -1.553 2.049 4285507812
4.5019999 -1.569 2.0369999 4285507812
4.4640002 -1.59 2.0320001 4285507812
4.4429998 -1.617 2.0339999 4285507812
4.4320002 -1.649 2.04 4285507812
4.4219999 -1.679 2.0450001 4285507812
4.4060001 -1.7079999 2.0469999 4285507812
4.3779998 -1.732 2.043 4285507812
4.355 -1.756 2.039 4285507812
4.3270001 -1.779 2.033 4285507812
4.3049998 -1.804 2.0280001 4285507812
4.2750001 -1.825 2.0190001 4285507812
4.2639999 -1.853 2.0179999 4285507812
4.25 -1.88 2.0150001 4285507812
4.2389998 -1.909 2.0120001 4285507812
4.2350001 -1.9400001 2.0120001 4285507812
4.2329998 -1.971 2.0109999 4285507812
4.2220001 -1.998 2.0050001 4285507812
4.2249999 -2.0309999 2.0050001 4285507812
4.2059999 -2.053 1.994 4285507812
5.1869998 0.017000001 -0.486 4290527416
5.1880002 0.021 -0.523 4290527416
5.1869998 0.025 -0.56 4290527416
5.1869998 0.028000001 -0.48300001 4290527416
5.1929998 0.030999999 -0.597 4290527416
5.184 0.033 -0.51899999 4290527416
5.184 0.035999998 -0.63200003 4290527416
5.1890001 0.039000001 -0.55599999 4290527416
5.1859999 0.041999999 -0.47799999 4290527416
5.1929998 0.045000002 -0.59299999 4290527416
5.1880002 0.048999999 -0.51499999 4290527416
5.178 0.052000001 -0.62699997 4290527416
5.1820002 0.055 -0.55000001 4290527416
5.165 0.059 -0.472 4290527416
5.1929998 0.063000001 -0.58700001 4290527416
5.1799998 0.067000002 -0.50800002 4290527416
5.1830001 0.071000002 -0.62199998 4290527416
5.1810002 0.075000003 -0.54400003 4290527416
5.1869998 0.082999997 -0.58099997 4290527416
5.1849999 0.086999997 -0.50300002 4290527416
5.1880002 0.092 -0.616 4290527416
5.1900001 0.097000003 -0.53799999 4290527416
5.2140002 0.107 -0.57599998 4290527416
5.2119999 0.111 -0.498 4290527416
5.2030001 0.116 -0.61000001 4290527416
5.2129998 0.122 -0.53299999 4290527416
5.2140002 0.132 -0.56800002 4290527416
5.2270002 0.14399999 -0.60399997 4290527416
5.165 0.035 -0.63599998 4290527416
5.1849999 0.037999999 -0.602 4290527416
5.099 0.044 -0.64399999 4290527416
5.1719999 0.041000001 -0.565 4290527416
5.1810002 0.046999998 -0.61799997 4290527416
5.1739998 0.044 -0.52899998 4290527416
5.1810002 0.048999999 -0.58099997 4290527416
5.1859999 0.046 -0.49399999 4290527416
5.1690001 0.054000001 -0.63300002 4290527416
5.1750002 0.050999999 -0.54500002 4290527416
5.1859999 0.055 -0.59799999 4290527416
5.1820002 0.052000001 -0.509 4290527416
5.132 0.057999998 -0.64399999 4290527416
5.1859999 0.055 -0.56099999 4290527416
5.177 0.052000001 -0.472 4290527416
5.1869998 0.057999998 -0.61400002 4290527416
5.184 0.055 -0.52499998 4290527416
5.1859999 0.057999998 -0.57700002 4290527416
5.1880002 0.055 -0.48800001 4290527416
5.1799998 0.059999999 -0.62800002 4290527416
5.1799998 0.057 -0.53899997 4290527416
5.1849999 0.057999998 -0.59200001 4290527416
5.1900001 0.056000002 -0.50400001 4290527416
5.1620002 0.059 -0.64099997 4290527416
5.1880002 0.056000002 -0.55599999 4290527416
5.1849999 0.056000002 -0.60699999 4290527416
5.1849999 0.054000001 -0.51800001 4290527416
5.1880002 0.054000001 -0.57099998 4290527416
5.1890001 0.050999999 -0.48199999 4290527416
5.1890001 0.050000001 -0.53299999 4290527416
5.1849999 0.046 -0.49599999 4290527416
5.2420001 0.13 -0.51099998 4290527416
5.25 0.153 -0.495 4290527416
7.4910002 -0.37400001 -0.29899999 4278900620
7.4200001 -0.33899999 -0.255 4278900620
7.2839999 -0.30700001 -0.33199999 4278900620
7.3559999 -0.30599999 -0.211 4278900620
7.2989998 -0.27500001 -0.168 4278900620
7.165 -0.245 -0.245 4278900620
7.4429998 -0.32300001 -0.142 4278900620
7.2839999 -0.27000001 -0.161 4278900620
7.3239999 -0.264 -0.052000001 4278900620
7.23 -0.26100001 -0.233 4278900620
7.323 -0.273 -0.12 4278900620
7.3769999 -0.317 -0.23 4278900620
7.4770002 -0.33000001 -0.114 4278900620
7.4520001 -0.35100001 -0.25799999 4278900620
7.4970002 -0.34400001 -0.14300001 4278900620
7.2930002 -0.29300001 -0.259 4278900620
7.3309999 -0.285 -0.146 4278900620
7.1409998 -0.237 -0.259 4278900620
7.1680002 -0.26199999 -0.31799999 4278900620
7.2800002 -0.27500001 -0.20999999 4278900620
7.368 -0.28799999 -0.098999999 4278900620
7.3169999 -0.31799999 -0.33399999 4278900620
7.4219999 -0.331 -0.22400001 4278900620
7.5320001 -0.34599999 -0.111 4278900620
7.5089998 -0.37599999 -0.26699999 4278900620
7.3099999 -0.32499999 -0.36700001 4278900620
7.355 -0.31799999 -0.252 4278900620
7.402 -0.31 -0.13500001 4278900620
7.1789999 -0.26899999 -0.34999999 4278900620
7.2210002 -0.26199999 -0.236 4278900620
7.1599998 -0.25099999 -0.29800001 4278900620
7.2620001 -0.26199999 -0.193 4278900620
7.3330002 -0.27200001 -0.085000001 4278900620
7.2810001 -0.29899999 -0.32800001 4278900620
7.3670001 -0.31099999 -0.222 4278900620
7.4549999 -0.322 -0.113 4278900620
7.494 -0.361 -0.252 4278900620
7.448 -0.35699999 -0.285 4278900620
7.5040002 -0.352 -0.163 4278900620
7.2789998 -0.31200001 -0.373 4278900620
7.3239999 -0.30599999 -0.25400001 4278900620
7.3779998 -0.301 -0.13500001 4278900620
7.1630001 -0.264 -0.34099999 4278900620
7.2249999 -0.25799999 -0.22499999 4278900620
7.1149998 -0.23899999 -0.31200001 4278900620
7.1929998 -0.24600001 -0.20999999 4278900620
7.1950002 -0.27399999 -0.35299999 4278900620
7.2659998 -0.28099999 -0.25099999 4278900620
7.3439999 -0.289 -0.147 4278900620
7.263 -0.30899999 -0.396 4278900620
7.3379998 -0.317 -0.29300001 4278900620
7.4169998 -0.32499999 -0.189 4278900620
7.4990001 -0.333 -0.082000002 4278900620
7.4840002 -0.36000001 -0.23100001 4278900620
3.786 -1.046 2.1300001 4283920224
3.8110001 -1.069 2.1289999 4283920224
3.8069999 -1.084 2.112 4283920224
3.8080001 -1.099 2.095 4283920224
3.8410001 -1.123 2.096 4283920224
3.7909999 -1.1569999 2.1289999 4283920224
3.783 -1.168 2.1040001 4283920224
3.789 -1.182 2.0869999 4283920224
3.7620001 -1.2180001 2.125 4283920224
3.7720001 -1.2309999 2.1059999 4283920224
3.776 -1.242 2.0840001 4283920224
3.757 -1.275 2.118 4283920224
3.756 -1.281 2.0899999 4283920224
3.786 -1.298 2.0799999 4283920224
3.737 -1.3099999 2.119 4283920224
3.744 -1.317 2.0929999 4283920224
3.7609999 -1.327 2.073 4283920224
3.7260001 -1.341 2.1170001 4283920224
3.7390001 -1.348 2.092 4283920224
3.767 -1.358 2.076 4283920224
4.0289998 -0.92299998 2.102 4283920224
3.993 -0.94 2.098 4283920224
3.984 -0.96499997 2.108 4283920224
3.9779999 -0.99000001 2.119 4283920224
3.9660001 -1.0140001 2.125 4283920224
3.9419999 -1.034 2.125 4283920224
3.9030001 -1.05 2.115 4283920224
3.868 -1.068 2.1070001 4283920224
3.8340001 -1.085 2.098 4283920224
3.813 -1.105 2.095 4283920224
3.8 -1.127 2.096 4283920224
3.7909999 -1.151 2.098 4283920224
3.7809999 -1.174 2.099 4283920224
3.7750001 -1.198 2.1010001 4283920224
3.77 -1.223 2.1029999 4283920224
3.763 -1.2460001 2.1029999 4283920224
3.7579999 -1.2690001 2.1029999 4283920224
3.7509999 -1.293 2.1010001 4283920224
3.7460001 -1.317 2.0999999 4283920224
3.74 -1.339 2.0969999 4283920224
3.734 -1.3609999 2.092 4283920224
3.7249999 -1.382 2.086 4283920224
3.721 -1.405 2.0810001 4283920224
3.7179999 -1.427 2.076 4283920224
3.7130001 -1.448 2.069 4283920224
3.7190001 -1.473 2.0669999 4283920224
3.7279999 -1.499 2.066 4283920224
3.7509999 -1.53 2.072 4283920224
3.7809999 -1.564 2.0799999 4283920224
3.8039999 -1.594 2.0829999 4283920224
3.812 -1.618 2.0780001 4283920224
3.8050001 -1.635 2.062 4283920224
3.8050001 -1.654 2.0510001 4283920224
3.8139999 -1.677 2.043 4283920224
9.3219995 -0.35699999 0.89399999 4288939828
9.3269997 -0.384 0.95499998 4288939828
9.3210001 -0.412 1.013 4288939828
9.3039999 -0.44 0.90899998 4288939828
9.316 -0.44 1.072 4288939828
9.2980003 -0.46799999 0.96600002 4288939828
9.3000002 -0.498 1.024 4288939828
9.2910004 -0.52899998 1.08 4288939828
9.2840004 -0.56 1.137 4288939828
9.2810001 -0.59200001 1.193 4288939828
9.2740002 -0.625 1.249 4288939828
9.2709999 -0.65799999 1.3049999 4288939828
9.2690001 -0.69300002 1.3609999 4288939828
9.2589998 -0.727 1.414 4288939828
9.25 -0.76200002 1.4680001 4288939828
9.3269997 -0.35600001 0.91399997 4288939828
9.3179998 -0.396 0.96700001 4288939828
9.316 -0.43599999 1.0190001 4288939828
9.3260002 -0.47299999 0.912 4288939828
9.3079996 -0.477 1.071 4288939828
9.3179998 -0.514 0.963 4288939828
9.2969999 -0.51899999 1.122 4288939828
9.283 -0.55400002 1.01 4288939828
9.2939997 -0.56099999 1.173 4288939828
9.2749996 -0.597 1.0599999 4288939828
9.283 -0.60399997 1.223 4288939828
9.2620001 -0.63999999 1.109 4288939828
9.2770004 -0.64700001 1.273 4288939828
9.2670002 -0.69099998 1.322 4288939828
9.2550001 -0.73500001 1.369 4288939828
9.2530003 -0.78100002 1.418 4288939828
9.243 -0.77600002 1.436 4288939828
9.2469997 -0.74900001 1.377 4288939828
9.2480001 -0.72000003 1.317 4288939828
9.2620001 -0.72100002 1.456 4288939828
9.2589998 -0.69 1.258 4288939828
9.2709999 -0.69199997 1.397 4288939828
9.257 -0.66000003 1.064 4288939828
9.2749996 -0.66100001 1.339 4288939828
9.2709999 -0.63 1.1440001 4288939828
9.2779999 -0.63 1.281 4288939828
9.2779999 -0.59899998 1.086 4288939828
9.2880001 -0.59799999 1.224 4288939828
9.276 -0.56599998 1.028 4288939828
9.29 -0.56599998 1.1670001 4288939828
9.3059998 -0.53500003 0.97500002 4288939828
9.2969999 -0.53200001 1.11 4288939828
9.3109999 -0.50099999 0.91799998 4288939828
9.2959995 -0.498 1.053 4288939828
9.3039999 -0.46399999 0.99699998 4288939828
9.3179998 -0.42899999 0.94300002 4288939828
9.3450003 -0.39399999 0.89099997 4288939828
3.3610001 -0.87900001 -0.456 4294024712
3.346 -0.89600003 -0.46900001 4294024712
3.312 -0.90799999 -0.479 4294024712
3.289 -0.92199999 -0.49000001 4294024712
3.2690001 -0.93699998 -0.50199997 4294024712
3.329 -0.97399998 -0.52700001 4294024712
3.3199999 -0.97299999 -0.47499999 4294024712
3.3110001 -0.98900002 -0.54100001 4294024712
3.296 -0.986 -0.48699999 4294024712
3.28 -1.001 -0.50099999 4294024712
3.2950001 -1.025 -0.51999998 4294024712
3.3099999 -1.05 -0.53899997 4294024712
3.2980001 -1.0470001 -0.486 4294024712
3.276 -1.058 -0.49900001 4294024712
3.2550001 -1.0700001 -0.51300001 4294024712
3.277 -1.096 -0.53399998 4294024712
3.296 -1.103 -0.486 4294024712
3.267 -1.1109999 -0.5 4294024712
3.2850001 -1.135 -0.51999998 4294024712
3.2820001 -1.152 -0.53799999 4294024712
3.302 -1.159 -0.49000001 4294024712
3.3180001 -1.182 -0.51099998 4294024712
3.398 -0.64700001 -0.47 4294024712
3.346 -0.653 -0.48100001 4294024712
3.3239999 -0.66399997 -0.49700001 4294024712
3.381 -0.676 -0.456 4294024712
3.3440001 -0.68400002 -0.47 4294024712
3.3280001 -0.69499999 -0.48699999 4294024712
3.3 -0.704 -0.50199997 4294024712
3.3559999 -0.71600002 -0.461 4294024712
3.336 -0.72600001 -0.47799999 4294024712
3.3110001 -0.73400003 -0.49399999 4294024712
3.306 -1.175 -0.49599999 4294024712
3.2909999 -1.1440001 -0.49399999 4294024712
3.279 -1.114 -0.49200001 4294024712
3.273 -1.086 -0.491 4294024712
3.2909999 -1.067 -0.493 4294024712
3.2880001 -1.04 -0.491 4294024712
3.2850001 -1.0140001 -0.49000001 4294024712
3.2969999 -0.99199998 -0.49000001 4294024712
3.3050001 -0.97000003 -0.48899999 4294024712
3.306 -0.94499999 -0.48699999 4294024712
3.3080001 -0.92000002 -0.484 4294024712
3.309 -0.89499998 -0.48199999 4294024712
3.322 -0.87400001 -0.47999999 4294024712
3.3239999 -0.84899998 -0.477 4294024712
3.332 -0.82599998 -0.47400001 4294024712
3.346 -0.80500001 -0.47099999 4294024712
3.346 -0.77999997 -0.46700001 4294024712
3.358 -0.75800002 -0.463 4294024712
3.3729999 -0.73699999 -0.46000001 4294024712
3.381 -0.71399999 -0.456 4294024712
3.7880001 -0.106 -1.007 4282332891
3.655 -0.1 -0.99900001 4282332891
3.5469999 -0.094999999 -0.99699998 4282332891
3.8 -0.096000001 -1.006 4282332891
3.4330001 -0.089000002 -0.991 4282332891
3.6789999 -0.090000004 -1.001 4282332891
3.5639999 -0.083999999 -0.99699998 4282332891
3.8239999 -0.085000001 -1.006 4282332891
3.4560001 -0.078000002 -0.99199998 4282332891
3.701 -0.078000002 -1.001 4282332891
3.5829999 -0.071000002 -0.99599999 4282332891
3.8410001 -0.071000002 -1.0039999 4282332891
3.474 -0.064999998 -0.991 4282332891
3.714 -0.063000001 -0.99800003 4282332891
3.5999999 -0.057 -0.99400002 4282332891
3.8699999 -0.055 -1.0039999 4282332891
3.4949999 -0.050000001 -0.99000001 4282332891
3.7409999 -0.046999998 -0.99699998 4282332891
3.6270001 -0.039999999 -0.99299997 4282332891
3.8940001 -0.035999998 -1.002 4282332891
3.523 -0.032000002 -0.98900002 4282332891
3.7709999 -0.028000001 -0.99599999 4282332891
3.6589999 -0.021 -0.99199998 4282332891
3.5480001 -0.013 -0.98699999 4282332891
3.454 -0.125 -0.99400002 4282332891
3.543 -0.118 -0.99599999 4282332891
3.641 -0.111 -0.99900001 4282332891
3.4590001 -0.093000002 -0.99199998 4282332891
3.7479999 -0.104 -1.003 4282332891
3.553 -0.086000003 -0.995 4282332891
3.858 -0.097000003 -1.007 4282332891
3.6559999 -0.079999998 -0.99900001 4282332891
3.4749999 -0.064999998 -0.99199998 4282332891
3.7590001 -0.072999999 -1.001 4282332891
3.566 -0.057999998 -0.99299997 4282332891
3.8829999 -0.067000002 -1.007 4282332891
3.671 -0.052000001 -0.99599999 4282332891
3.497 -0.039000001 -0.99199998 4282332891
3.7909999 -0.046 -1.002 4282332891
3.5940001 -0.033 -0.99400002 4282332891
3.908 -0.039000001 -1.006 4282332891
3.707 -0.027000001 -0.99800003 4282332891
3.523 -0.016000001 -0.99000001 4282332891
3.823 -0.021 -1.002 4282332891
3.6329999 -0.0099999998 -0.995 4282332891
3.9489999 -0.014 -1.006 4282332891
3.7460001 -0.0040000002 -0.99800003 4282332891
3.5639999 0.0040000002 -0.991 4282332891
3.8670001 0 -1.002 4282332891
3.675 0.0089999996 -0.995 4282332891
3.796 0.014 -0.99900001 4282332891
3.9300001 0.02 -1.005 4282332891
3.27 -0.176 2.191 4287417775
3.2579999 -0.19400001 2.204 4287417775
3.25 -0.213 2.2190001 4287417775
3.2479999 -0.23199999 2.2360001 4287417775
3.2 -0.24699999 2.2219999 4287417775
3.2980001 -0.271 2.197 4287417775
3.2490001 -0.287 2.181 4287417775
3.2309999 -0.30500001 2.1849999 4287417775
3.22 -0.324 2.1930001 4287417775
3.214 -0.34299999 2.2030001 4287417775
3.211 -0.36300001 2.214 4287417775
3.2049999 -0.38299999 2.223 4287417775
3.1819999 -0.40099999 2.2190001 4287417775
3.1530001 -0.41800001 2.21 4287417775
3.1210001 -0.43399999 2.198 4287417775
3.0880001 -0.44999999 2.1830001 4287417775
3.069 -0.46799999 2.178 4287417775
3.0539999 -0.486 2.175 4287417775
3.039 -0.50300002 2.171 4287417775
3.0220001 -0.51999998 2.164 4287417775
3.016 -0.54000002 2.165 4287417775
3.013 -0.55900002 2.1659999 4287417775
3.0090001 -0.57800001 2.1659999 4287417775
3.0039999 -0.597 2.164 4287417775
2.9990001 -0.61500001 2.1619999 4287417775
2.9949999 -0.634 2.1589999 4287417775
2.993 -0.653 2.1559999 4287417775
2.994 -0.67199999 2.155 4287417775
2.9949999 -0.69099998 2.1530001 4287417775
3.01 -0.713 2.1600001 4287417775
3.0220001 -0.73400003 2.164 4287417775
3.0480001 -0.759 2.177 4287417775
3.0669999 -0.78200001 2.184 4287417775
3.092 -0.80599999 2.194 4287417775
3.096 -0.824 2.188 4287417775
3.0869999 -0.83899999 2.1719999 4287417775
3.075 -0.852 2.1530001 4287417775
3.079 -0.86900002 2.145 4287417775
3.082 -0.88599998 2.135 4287417775
3.1110001 -0.90899998 2.141 4287417775
3.234 -0.142 2.234 4287417775
3.2639999 -0.15899999 2.2349999 4287417775
3.263 -0.176 2.2149999 4287417775
3.2579999 -0.191 2.191 4287417775
3.296 -0.20900001 2.1949999 4287417775
3.175 -0.213 2.2130001 4287417775
3.2420001 -0.23199999 2.237 4287417775
3.243 -0.24699999 2.214 4287417775
3.2409999 -0.25999999 2.1889999 4287417775
3.2809999 -0.27700001 2.1919999 4287417775
4.8080001 -0.69199997 -0.82800001 4292437379
4.7919998 -0.66299999 -0.80299997 4292437379
4.7919998 -0.63599998 -0.77999997 4292437379
4.7919998 -0.63200003 -0.69400001 4292437379
4.7810001 -0.60900003 -0.755 4292437379
4.7880001 -0.60600001 -0.67000002 4292437379
4.7800002 -0.588 -0.81900001 4292437379
4.783 -0.58399999 -0.73299998 4292437379
4.7870002 -0.57999998 -0.648 4292437379
4.7930002 -0.56400001 -0.79699999 4292437379
4.8299999 -0.56400001 -0.71600002 4292437379
4.8369999 -0.56099999 -0.63099998 4292437379
4.8330002 -0.54299998 -0.77899998 4292437379
4.8439999 -0.54100001 -0.69400001 4292437379
4.8410001 -0.523 -0.84299999 4292437379
4.8639998 -0.52200001 -0.75999999 4292437379
4.8429999 -0.50300002 -0.90600002 4292437379
4.862 -0.50099999 -0.82200003 4292437379
4.8720002 -0.48100001 -0.88599998 4292437379
4.8850002 -0.47799999 -0.80000001 4292437379
4.9060001 -0.46000001 -0.86500001 4292437379
4.8969998 -0.48300001 -0.81300002 4292437379
4.8660002 -0.498 -0.83899999 4292437379
4.8439999 -0.51300001 -0.866 4292437379
4.8559999 -0.51300001 -0.796 4292437379
4.855 -0.51200002 -0.72399998 4292437379
4.8449998 -0.52899998 -0.82499999 4292437379
4.8569999 -0.52899998 -0.755 4292437379
4.8540001 -0.528 -0.68400002 4292437379
4.8390002 -0.54299998 -0.78399998 4292437379
4.8410001 -0.542 -0.713 4292437379
4.8839998 -0.54500002 -0.648 4292437379
4.8260002 -0.55699998 -0.81300002 4292437379
4.8299999 -0.55599999 -0.74199998 4292437379
4.835 -0.55500001 -0.67199999 4292437379
4.8730001 -0.55800003 -0.60699999 4292437379
4.8000002 -0.56699997 -0.76899999 4292437379
4.8239999 -0.56800002 -0.70200002 4292437379
4.8330002 -0.56699997 -0.63300002 4292437379
4.7880001 -0.57999998 -0.79900002 4292437379
4.7839999 -0.57700002 -0.72799999 4292437379
4.7940001 -0.57700002 -0.65899998 4292437379
4.7800002 -0.59100002 -0.759 4292437379
4.7919998 -0.58999997 -0.69 4292437379
4.7859998 -0.60500002 -0.79100001 4292437379
4.7909999 -0.60299999 -0.722 4292437379
4.7750001 -0.616 -0.82099998 4292437379
4.7919998 -0.61500001 -0.75400001 4292437379
4.7880001 -0.62699997 -0.78500003 4292437379
4.79 -0.639 -0.81800002 4292437379
3.902 -1.155 2.1110001 4280810583
3.9289999 -1.177 2.1070001 4280810583
3.9260001 -1.189 2.085 4280810583
3.9460001 -1.2079999 2.075 4280810583
3.9119999 -1.243 2.1099999 4280810583
3.9159999 -1.255 2.089 4280810583
3.9319999 -1.27 2.073 4280810583
3.902 -1.3 2.102 4280810583
3.8959999 -1.3049999 2.072 4280810583
3.892 -1.34 2.109 4280810583
3.8900001 -1.344 2.079 4280810583
3.9319999 -1.363 2.072 4280810583
3.8740001 -1.369 2.1040001 4280810583
3.8770001 -1.373 2.075 4280810583
3.9289999 -1.392 2.0710001 4280810583
3.872 -1.396 2.1010001 4280810583
3.8729999 -1.396 2.069 4280810583
3.9560001 -1.425 2.079 4280810583
4.1609998 -0.99400002 2.0910001 4280810583
4.1329999 -1.0140001 2.0899999 4280810583
4.1209998 -1.039 2.0969999 4280810583
4.1170001 -1.0650001 2.108 4280810583
4.1079998 -1.09 2.1140001 4280810583
4.0879998 -1.112 2.115 4280810583
4.053 -1.1289999 2.1059999 4280810583
4.0170002 -1.146 2.0969999 4280810583
3.9779999 -1.1619999 2.085 4280810583
3.9590001 -1.183 2.082 4280810583
3.938 -1.2029999 2.0769999 4280810583
3.924 -1.225 2.075 4280810583
3.915 -1.248 2.075 4280810583
3.9130001 -1.274 2.0780001 4280810583
3.898 -1.295 2.073 4280810583
3.8959999 -1.3200001 2.0739999 4280810583
3.892 -1.345 2.073 4280810583
3.8829999 -1.367 2.069 4280810583
3.8800001 -1.39 2.066 4280810583
3.8729999 -1.413 2.0610001 4280810583
3.8699999 -1.436 2.0569999 4280810583
3.8800001 -1.4630001 2.059 4280810583
3.8959999 -1.493 2.0639999 4280810583
3.9059999 -1.52 2.063 4280810583
3.9330001 -1.554 2.072 4280810583
3.9519999 -1.584 2.075 4280810583
3.9660001 -1.612 2.073 4280810583
3.9679999 -1.6339999 2.066 4280810583
3.96 -1.652 2.052 4280810583
3.96 -1.6720001 2.0409999 4280810583
3.971 -1.697 2.0350001 4280810583
4.5250001 1.2 2.2939999 4285830187
4.5489998 1.175 2.289 4285830187
4.329 1.124 2.289 4285830187
4.5419998 1.142 2.266 4285830187
4.3709998 1.104 2.293 4285830187
4.5619998 1.1160001 2.257 4285830187
4.362 1.071 2.2690001 4285830187
4.381 1.046 2.2590001 4285830187
4.4520001 1.033 2.2739999 4285830187
4.5009999 1.0140001 2.277 4285830187
4.289 0.96899998 2.28 4285830187
4.494 0.98199999 2.2509999 4285830187
4.3340001 0.949 2.28 4285830187
4.5279999 0.95899999 2.2449999 4285830187
4.3270001 0.91900003 2.2539999 4285830187
4.3699999 0.89899999 2.2520001 4285830187
