# .PCD v0.7 - Point Cloud Data file format
VERSION 0.7
FIELDS x y z rgb
SIZE 4 4 4 4
TYPE F F F U
COUNT 1 1 1 1
WIDTH 1246
HEIGHT 1
VIEWPOINT 0 0 0 1 0 0 0
POINTS 1246
DATA ascii
4.092 0.27000001 0.068999998 4281428479
3.951 0.26800001 -0.248 4281428479
4.0770001 0.28 -0.192 4281428479
4.1739998 0.29100001 -0.131 4281428479
4.1620002 0.294 -0.066 4281428479
4.1399999 0.29699999 -0.001 4281428479
4.1259999 0.30000001 0.061999999 4281428479
3.9349999 0.294 -0.25400001 4281428479
4.053 0.30700001 -0.198 4281428479
4.1919999 0.32100001 -0.139 4281428479
4.1960001 0.32499999 -0.074000001 4281428479
4.1700001 0.32699999 -0.0080000004 4281428479
4.1570001 0.33000001 0.056000002 4281428479
3.9100001 0.31900001 -0.259 4281428479
4.0240002 0.33199999 -0.204 4281428479
4.1589999 0.347 -0.145 4281428479
4.23 0.35699999 -0.082000002 4281428479
4.2010002 0.359 -0.015 4281428479
4.1630001 0.359 0.048999999 4281428479
3.885 0.34400001 -0.26499999 4281428479
3.9990001 0.35800001 -0.20900001 4281428479
4.1350002 0.37400001 -0.15099999 4281428479
4.224 0.38499999 -0.088 4281428479
4.1700001 0.384 -0.021 4281428479
4.1360002 0.38499999 0.043000001 4281428479
3.8640001 0.36899999 -0.26899999 4281428479
3.9749999 0.38299999 -0.214 4281428479
4.1220002 0.40099999 -0.15700001 4281428479
4.1919999 0.41100001 -0.093999997 4281428479
4.145 0.41 -0.027000001 4281428479
4.1030002 0.41 0.035999998 4281428479
3.852 0.39500001 -0.27399999 4281428479
3.9619999 0.40900001 -0.22 4281428479
4.0939999 0.426 -0.162 4281428479
4.1599998 0.43700001 -0.098999999 4281428479
4.118 0.43599999 -0.033 4281428479
4.079 0.43599999 0.030999999 4281428479
3.8280001 0.41999999 -0.27900001 4281428479
3.9430001 0.435 -0.22400001 4281428479
4.0749998 0.45300001 -0.167 4281428479
4.132 0.463 -0.104 4281428479
4.0869999 0.461 -0.037999999 4281428479
4.052 0.461 0.025 4281428479
3.8150001 0.44499999 -0.28299999 4281428479
3.931 0.46200001 -0.229 4281428479
4.0570002 0.479 -0.17200001 4281428479
4.1020002 0.48800001 -0.108 4281428479
4.0539999 0.486 -0.043000001 4281428479
4.02 0.48500001 0.02 4281428479
3.789 0.46900001 -0.28600001 4281428479
3.914 0.48699999 -0.233 4281428479
4.0359998 0.505 -0.176 4281428479
4.0700002 0.51200002 -0.112 4281428479
4.0279999 0.51099998 -0.046999998 4281428479
3.9909999 0.509 0.016000001 4281428479
3.783 0.495 -0.28999999 4281428479
3.892 0.51200002 -0.236 4281428479
4.0190001 0.53100002 -0.18000001 4281428479
4.0409999 0.537 -0.116 4281428479
3.9990001 0.53500003 -0.050999999 4281428479
3.9579999 0.53299999 0.011 4281428479
3.7720001 0.51999998 -0.29300001 4281428479
3.8789999 0.53799999 -0.23999999 4281428479
4.0050001 0.55800003 -0.183 4281428479
4.0139999 0.56199998 -0.119 4281428479
3.971 0.55900002 -0.055 4281428479
3.9289999 0.55599999 0.0080000004 4281428479
3.76 0.546 -0.29699999 4281428479
3.869 0.56400001 -0.243 4281428479
3.9879999 0.58399999 -0.186 4281428479
3.9809999 0.58600003 -0.122 4281428479
3.9400001 0.583 -0.057999998 4281428479
3.901 0.57999998 0.0040000002 4281428479
3.7520001 0.57099998 -0.30000001 4281428479
3.8529999 0.58899999 -0.245 4281428479
3.9749999 0.61000001 -0.189 4281428479
3.9519999 0.60900003 -0.124 4281428479
3.9119999 0.60600001 -0.061000001 4281428479
3.8729999 0.60299999 0.001 4281428479
3.7969999 0.60500002 -0.30700001 4281428479
3.8429999 0.61500001 -0.248 4281428479
3.954 0.63499999 -0.191 4281428479
3.925 0.63300002 -0.127 4281428479
3.881 0.62900001 -0.063000001 4281428479
3.846 0.62599999 -0.001 4281428479
3.825 0.63999999 -0.25 4281428479
3.9360001 0.66000003 -0.193 4281428479
3.8959999 0.65600002 -0.12800001 4281428479
3.855 0.65200001 -0.064999998 4281428479
3.823 0.64999998 -0.003 4281428479
3.8199999 0.66600001 -0.252 4281428479
3.908 0.68400002 -0.19400001 4281428479
3.8670001 0.67900002 -0.13 4281428479
3.826 0.67500001 -0.066 4281428479
3.7920001 0.67199999 -0.0049999999 4281428479
3.8199999 0.69400001 -0.25400001 4281428479
3.878 0.70700002 -0.19499999 4281428479
3.8410001 0.70300001 -0.131 4281428479
3.8039999 0.69800001 -0.068000004 4281428479
3.9790001 0.25099999 0.37200001 4281428479
3.9630001 0.235 0.347 4281428479
3.961 0.22 0.32300001 4281428479
3.951 0.206 0.29899999 4281428479
3.944 0.191 0.27500001 4281428479
3.944 0.18799999 0.33399999 4281428479
3.9360001 0.178 0.25 4281428479
3.927 0.17299999 0.30899999 4281428479
3.931 0.164 0.226 4281428479
3.9159999 0.16 0.28400001 4281428479
3.924 0.15099999 0.20200001 4281428479
3.9059999 0.147 0.259 4281428479
3.921 0.138 0.177 4281428479
3.9000001 0.134 0.235 4281428479
3.9189999 0.126 0.153 4281428479
3.8940001 0.122 0.20999999 4281428479
3.915 0.113 0.12800001 4281428479
3.8859999 0.109 0.185 4281428479
3.914 0.107 0.245 4281428479
3.9089999 0.102 0.104 4281428479
3.8889999 0.097999997 0.16 4281428479
3.8789999 0.094999999 0.21799999 4281428479
3.9030001 0.090000004 0.078000002 4281428479
3.8829999 0.086999997 0.13500001 4281428479
3.8699999 0.082999997 0.192 4281428479
3.902 0.079000004 0.054000001 4281428479
3.875 0.075999998 0.11 4281428479
3.865 0.072999999 0.167 4281428479
3.888 0.068000004 0.028999999 4281428479
3.8640001 0.064999998 0.085000001 4281428479
3.8529999 0.061999999 0.142 4281428479
3.8710001 0.057 0.0040000002 4281428479
3.8659999 0.055 0.061000001 4281428479
3.849 0.052000001 0.117 4281428479
3.8710001 0.046999998 -0.02 4281428479
3.8529999 0.045000002 0.035 4281428479
3.852 0.041999999 0.092 4281428479
3.8870001 0.037 -0.045000002 4281428479
3.839 0.035 0.0099999998 4281428479
3.8399999 0.033 0.066 4281428479
3.8900001 0.028000001 -0.071000002 4281428479
3.8380001 0.025 -0.014 4281428479
3.8440001 0.024 0.041999999 4281428479
3.888 0.022 0.098999999 4281428479
3.891 0.018999999 -0.096000001 4281428479
3.8610001 0.017000001 -0.039000001 4281428479
3.8280001 0.015 0.016000001 4281428479
3.875 0.013 0.072999999 4281428479
3.8900001 0.0099999998 -0.122 4281428479
3.8629999 0.0080000004 -0.064000003 4281428479
3.8139999 0.0060000001 -0.0080000004 4281428479
3.8870001 0.0049999999 0.046999998 4281428479
3.8840001 0.001 -0.147 4281428479
3.8699999 0 -0.090000004 4281428479
3.842 -0.001 -0.034000002 4281428479
3.8210001 -0.0020000001 0.021 4281428479
3.8859999 -0.0060000001 -0.17299999 4281428479
3.872 -0.0080000004 -0.116 4281428479
3.846 -0.0089999996 -0.059 4281428479
3.8180001 -0.0099999998 -0.003 4281428479
3.888 -0.015 -0.199 4281428479
3.869 -0.015 -0.142 4281428479
3.852 -0.016000001 -0.085000001 4281428479
3.8369999 -0.017000001 -0.028999999 4281428479
3.888 -0.022 -0.22499999 4281428479
3.859 -0.023 -0.167 4281428479
3.8559999 -0.024 -0.111 4281428479
3.8859999 -0.025 -0.055 4281428479
3.895 -0.029999999 -0.25099999 4281428479
3.878 -0.029999999 -0.19400001 4281428479
3.9400001 -0.030999999 -0.14 4281428479
3.8970001 -0.032000002 -0.082000002 4281428479
3.9159999 -0.037 -0.27900001 4281428479
3.8659999 0.72899997 -0.21600001 4281428479
3.848 0.722 -0.153 4281428479
3.8180001 0.69999999 -0.25999999 4281428479
3.885 0.708 -0.20200001 4281428479
3.8570001 0.69999999 -0.139 4281428479
3.8239999 0.67799997 -0.24600001 4281428479
3.9030001 0.68800002 -0.18799999 4281428479
3.8699999 0.67900002 -0.124 4281428479
3.8150001 0.65600002 -0.29300001 4281428479
3.8540001 0.65899998 -0.234 4281428479
3.9230001 0.667 -0.17399999 4281428479
3.888 0.65799999 -0.11 4281428479
3.8510001 0.63800001 -0.28200001 4281428479
3.8870001 0.64099997 -0.221 4281428479
3.9389999 0.64600003 -0.161 4281428479
3.9030001 0.63599998 -0.097000003 4281428479
3.799 0.60600001 -0.264 4281428479
3.9230001 0.62199998 -0.20900001 4281428479
3.9560001 0.62400001 -0.147 4281428479
3.921 0.61500001 -0.082999997 4281428479
3.7939999 0.58499998 -0.31200001 4281428479
3.836 0.588 -0.25299999 4281428479
3.957 0.60299999 -0.197 4281428479
3.9779999 0.602 -0.134 4281428479
3.9430001 0.59399998 -0.07 4281428479
3.865 0.56800002 -0.242 4281428479
3.99 0.58200002 -0.185 4281428479
3.994 0.579 -0.121 4281428479
3.9719999 0.57300001 -0.057 4281428479
3.78 0.53500003 -0.285 4281428479
3.8929999 0.54699999 -0.23 4281428479
4.026 0.56199998 -0.17399999 4281428479
4.0159998 0.55699998 -0.109 4281428479
3.984 0.54900002 -0.044 4281428479
3.7750001 0.51499999 -0.333 4281428479
3.812 0.51599997 -0.27500001 4281428479
3.927 0.52700001 -0.22 4281428479
4.0619998 0.54100001 -0.162 4281428479
4.0359998 0.53399998 -0.096000001 4281428479
4.0050001 0.52700001 -0.030999999 4281428479
3.753 0.48699999 -0.31900001 4281428479
3.8380001 0.49399999 -0.264 4281428479
3.9560001 0.50599998 -0.20900001 4281428479
4.0939999 0.51999998 -0.15000001 4281428479
4.059 0.51099998 -0.083999999 4281428479
4.0209999 0.50300002 -0.018999999 4281428479
3.753 0.46399999 -0.30700001 4281428479
3.8699999 0.47400001 -0.255 4281428479
3.9890001 0.48500001 -0.198 4281428479
4.1149998 0.49599999 -0.138 4281428479
4.0799999 0.48800001 -0.071999997 4281428479
4.0469999 0.48100001 -0.0070000002 4281428479
3.7809999 0.44299999 -0.29800001 4281428479
3.898 0.45199999 -0.245 4281428479
4.0180001 0.46200001 -0.18799999 4281428479
4.1409998 0.47299999 -0.127 4281428479
4.1040001 0.465 -0.059999999 4281428479
4.0749998 0.458 0.0040000002 4281428479
3.802 0.421 -0.289 4281428479
3.9219999 0.43000001 -0.235 4281428479
4.0560002 0.44100001 -0.178 4281428479
4.1599998 0.44800001 -0.116 4281428479
4.1259999 0.44 -0.048999999 4281428479
4.0970001 0.43399999 0.016000001 4281428479
3.8329999 0.39899999 -0.28 4281428479
3.9530001 0.40799999 -0.22499999 4281428479
4.0830002 0.417 -0.167 4281428479
4.1820002 0.42300001 -0.104 4281428479
4.1490002 0.41600001 -0.037 4281428479
4.118 0.40900001 0.028000001 4281428479
3.858 0.377 -0.271 4281428479
3.9779999 0.384 -0.21600001 4281428479
4.1170001 0.39399999 -0.15700001 4281428479
4.21 0.39899999 -0.093000002 4281428479
4.1719999 0.391 -0.026000001 4281428479
4.1370001 0.384 0.039000001 4281428479
3.882 0.354 -0.26199999 4281428479
4.0029998 0.361 -0.206 4281428479
4.1550002 0.37 -0.148 4281428479
4.2399998 0.37400001 -0.082999997 4281428479
4.1950002 0.366 -0.015 4281428479
4.165 0.359 0.050999999 4281428479
3.914 0.331 -0.25400001 4281428479
4.0440001 0.338 -0.198 4281428479
4.1849999 0.34599999 -0.138 4281428479
4.211 0.34400001 -0.071000002 4281428479
4.1820002 0.338 -0.0040000002 4281428479
4.1589999 0.33199999 0.061000001 4281428479
3.9389999 0.30700001 -0.24600001 4281428479
4.0749998 0.31400001 -0.189 4281428479
4.204 0.31999999 -0.12800001 4281428479
4.1799998 0.31400001 -0.059999999 4281428479
4.1479998 0.30700001 0.0049999999 4281428479
4.1259999 0.30199999 0.071000002 4281428479
3.9630001 0.28299999 -0.23800001 4281428479
4.1069999 0.28999999 -0.18099999 4281428479
4.1719999 0.28999999 -0.117 4281428479
4.1440001 0.28400001 -0.050000001 4281428479
4.1139998 0.278 0.015 4281428479
4.092 0.27200001 0.079999998 4281428479
3.9890001 0.259 -0.23 4281428479
4.132 0.264 -0.17200001 4281428479
4.1329999 0.25999999 -0.106 4281428479
4.1139998 0.255 -0.039999999 4281428479
4.0840001 0.249 0.024 4281428479
4.0539999 0.243 0.089000002 4281428479
4.0159998 0.234 -0.223 4281428479
4.1300001 0.237 -0.163 4281428479
4.1100001 0.23100001 -0.096000001 4281428479
4.0760002 0.22499999 -0.029999999 4281428479
4.0469999 0.219 0.033 4281428479
4.0300002 0.214 0.097999997 4281428479
4.0450001 0.20900001 -0.215 4281428479
4.098 0.207 -0.152 4281428479
4.0700002 0.20100001 -0.086000003 4281428479
4.0469999 0.19599999 -0.021 4281428479
4.0139999 0.19 0.041999999 4281428479
3.9920001 0.185 0.105 4281428479
4.0739999 0.183 -0.208 4281428479
4.0619998 0.178 -0.14300001 4281428479
4.0380001 0.17299999 -0.077 4281428479
4.0170002 0.168 -0.013 4281428479
3.9890001 0.162 0.050000001 4281428479
3.9649999 0.15700001 0.113 4281428479
4.0580001 0.155 -0.199 4281428479
4.0320001 0.15000001 -0.133 4281428479
4.007 0.145 -0.068999998 4281428479
3.9790001 0.139 -0.0049999999 4281428479
3.954 0.134 0.057999998 4281428479
3.9319999 0.13 0.12 4281428479
4.0279999 0.127 -0.19 4281428479
4.0019999 0.122 -0.125 4281428479
3.9820001 0.117 -0.059999999 4281428479
3.9449999 0.112 0.0020000001 4281428479
3.921 0.107 0.064999998 4281428479
3.902 0.102 0.126 4281428479
3.9990001 0.098999999 -0.18099999 4281428479
3.977 0.093999997 -0.116 4281428479
3.944 0.089000002 -0.052999999 4281428479
3.9059999 0.085000001 0.0089999996 4281428479
3.892 0.079999998 0.071000002 4281428479
3.8670001 0.075000003 0.132 4281428479
3.97 0.071999997 -0.17299999 4281428479
3.9349999 0.067000002 -0.108 4281428479
3.902 0.061999999 -0.045000002 4281428479
3.872 0.057999998 0.016000001 4281428479
3.8610001 0.052999999 0.078000002 4281428479
3.836 0.048 0.138 4281428479
3.9300001 0.045000002 -0.164 4281428479
3.918 0.039999999 -0.101 4281428479
3.8789999 0.035 -0.037999999 4281428479
3.845 0.030999999 0.022 4281428479
3.839 0.026000001 0.083999999 4281428479
3.9089999 0.017999999 -0.15700001 4281428479
3.8840001 0.013 -0.093999997 4281428479
3.849 0.0089999996 -0.032000002 4281428479
3.839 0.0040000002 0.028999999 4281428479
3.8789999 -0.0080000004 -0.15000001 4281428479
3.8510001 -0.012 -0.086999997 4281428479
3.8829999 -0.017000001 -0.026000001 4281428479
3.902 -0.027000001 -0.255 4281428479
3.8710001 -0.027000001 -0.18799999 4281428479
3.954 -0.027000001 -0.125 4281428479
3.911 -0.022 -0.29499999 4281428479
3.8940001 -0.022 -0.228 4281428479
3.8659999 -0.021 -0.161 4281428479
3.8499999 -0.021 -0.094999999 4281428479
3.901 -0.017000001 -0.26699999 4281428479
3.8840001 -0.017000001 -0.2 4281428479
3.8629999 -0.016000001 -0.134 4281428479
3.8440001 -0.016000001 -0.068000004 4281428479
3.901 -0.012 -0.23999999 4281428479
3.8789999 -0.012 -0.17299999 4281428479
3.862 -0.012 -0.108 4281428479
3.8410001 -0.011 -0.041999999 4281428479
3.8959999 -0.0080000004 -0.213 4281428479
3.8729999 -0.0080000004 -0.146 4281428479
3.8629999 -0.0070000002 -0.081 4281428479
3.835 -0.0070000002 -0.016000001 4281428479
3.8900001 -0.0040000002 -0.186 4281428479
3.872 -0.0040000002 -0.12 4281428479
3.846 -0.003 -0.054000001 4281428479
3.7650001 -0.0020000001 0.0099999998 4281428479
3.8800001 0 -0.15800001 4281428479
3.872 0 -0.093000002 4281428479
3.836 0 -0.027000001 4281428479
3.875 0.0020000001 -0.131 4281428479
3.8540001 0.003 -0.066 4281428479
3.779 0.003 -0.001 4281428479
3.875 0.0049999999 -0.104 4281428479
3.852 0.0060000001 -0.039000001 4281428479
3.8380001 0.0060000001 0.025 4281428479
3.8670001 0.0080000004 -0.077 4281428479
3.823 0.0080000004 -0.012 4281428479
3.881 0.0089999996 0.052000001 4281428479
3.8529999 0.0099999998 -0.050000001 4281428479
3.826 0.011 0.014 4281428479
3.848 0.012 -0.023 4281428479
3.8329999 0.013 0.039999999 4281428479
3.8369999 0.014 0.003 4281428479
3.881 0.015 0.068000004 4281428479
3.8380001 0.015 0.028999999 4281428479
3.848 0.016000001 0.057 4281428479
3.8640001 -0.02 -0.15000001 4281428479
3.852 -0.015 -0.089000002 4281428479
3.845 -0.0099999998 -0.028999999 4281428479
3.8929999 0.0070000002 -0.153 4281428479
3.8789999 0.011 -0.090999998 4281428479
3.8540001 0.016000001 -0.030999999 4281428479
3.8380001 0.02 0.028000001 4281428479
3.829 0.024 0.088 4281428479
3.9219999 0.035 -0.155 4281428479
3.901 0.039000001 -0.093000002 4281428479
3.8800001 0.043000001 -0.032000002 4281428479
3.8529999 0.046999998 0.027000001 4281428479
3.849 0.050999999 0.088 4281428479
3.845 0.056000002 0.148 4281428479
3.9519999 0.063000001 -0.15700001 4281428479
3.9360001 0.067000002 -0.094999999 4281428479
3.915 0.071000002 -0.033 4281428479
3.8929999 0.075000003 0.027000001 4281428479
3.872 0.078000002 0.086999997 4281428479
3.8729999 0.082999997 0.148 4281428479
3.9779999 0.090999998 -0.15899999 4281428479
3.9619999 0.094999999 -0.096000001 4281428479
3.9389999 0.098999999 -0.034000002 4281428479
3.9230001 0.103 0.027000001 4281428479
3.9100001 0.107 0.088 4281428479
3.8989999 0.11 0.149 4281428479
4.0079999 0.12 -0.16 4281428479
3.9949999 0.124 -0.097000003 4281428479
3.9760001 0.127 -0.034000002 4281428479
3.96 0.131 0.027000001 4281428479
3.9430001 0.13500001 0.089000002 4281428479
3.9300001 0.139 0.15000001 4281428479
4.0359998 0.15000001 -0.162 4281428479
4.0219998 0.153 -0.097999997 4281428479
4.006 0.15700001 -0.035 4281428479
3.99 0.16 0.027000001 4281428479
3.97 0.164 0.090000004 4281428479
3.954 0.167 0.15099999 4281428479
4.0640001 0.17900001 -0.162 4281428479
4.0479999 0.182 -0.097999997 4281428479
4.033 0.186 -0.034000002 4281428479
4.0180001 0.189 0.028000001 4281428479
3.9979999 0.193 0.090999998 4281428479
3.984 0.19599999 0.153 4281428479
4.1009998 0.20999999 -0.163 4281428479
4.0840001 0.213 -0.097999997 4281428479
4.0700002 0.21600001 -0.034000002 4281428479
4.0469999 0.219 0.028999999 4281428479
4.0320001 0.222 0.093000002 4281428479
4.0180001 0.22499999 0.155 4281428479
4.1290002 0.23999999 -0.163 4281428479
4.1149998 0.243 -0.097999997 4281428479
4.098 0.24600001 -0.033 4281428479
4.0799999 0.249 0.030999999 4281428479
4.059 0.252 0.093999997 4281428479
4.0479999 0.255 0.15800001 4281428479
4.151 0.271 -0.163 4281428479
4.1500001 0.27399999 -0.097000003 4281428479
4.1300001 0.27700001 -0.032000002 4281428479
4.1139998 0.28 0.032000002 4281428479
4.0910001 0.28200001 0.097000003 4281428479
4.0749998 0.28600001 0.161 4281428479
4.1469998 0.30000001 -0.161 4281428479
4.178 0.30599999 -0.096000001 4281428479
4.1599998 0.308 -0.029999999 4281428479
4.1420002 0.31099999 0.035 4281428479
4.1170001 0.31299999 0.098999999 4281428479
4.105 0.31600001 0.164 4281428479
4.1420002 0.329 -0.15899999 4281428479
4.211 0.338 -0.094999999 4281428479
4.1859999 0.34 -0.028000001 4281428479
4.171 0.34299999 0.037 4281428479
4.1440001 0.34400001 0.103 4281428479
4.1020002 0.345 0.16599999 4281428479
4.1350002 0.35699999 -0.156 4281428479
4.2360001 0.37 -0.093000002 4281428479
4.1950002 0.37 -0.025 4281428479
4.1469998 0.36899999 0.039999999 4281428479
4.105 0.36899999 0.104 4281428479
4.0609999 0.36899999 0.168 4281428479
4.1290002 0.38600001 -0.153 4281428479
4.2080002 0.39700001 -0.089000002 4281428479
4.1630001 0.396 -0.022 4281428479
4.119 0.396 0.041999999 4281428479
4.0739999 0.39500001 0.107 4281428479
4.0349998 0.39500001 0.17 4281428479
4.1300001 0.41499999 -0.15000001 4281428479
4.1659999 0.42199999 -0.085000001 4281428479
4.1230001 0.421 -0.018999999 4281428479
4.079 0.41999999 0.045000002 4281428479
4.039 0.41999999 0.109 4281428479
3.9960001 0.419 0.171 4281428479
4.1290002 0.44400001 -0.146 4281428479
4.132 0.44800001 -0.081 4281428479
4.0890002 0.44600001 -0.015 4281428479
4.053 0.44600001 0.048999999 4281428479
4.0040002 0.44400001 0.112 4281428479
3.96 0.44299999 0.17299999 4281428479
4.125 0.47299999 -0.142 4281428479
4.1009998 0.47299999 -0.075999998 4281428479
4.0539999 0.47099999 -0.011 4281428479
4.0159998 0.47 0.052000001 4281428479
3.9649999 0.46799999 0.115 4281428479
3.927 0.46700001 0.176 4281428479
4.105 0.49900001 -0.138 4281428479
4.0619998 0.49700001 -0.071000002 4281428479
4.0219998 0.49599999 -0.0070000002 4281428479
3.984 0.49399999 0.056000002 4281428479
3.934 0.49200001 0.118 4281428479
3.892 0.49000001 0.17900001 4281428479
4.066 0.523 -0.132 4281428479
4.0279999 0.52100003 -0.066 4281428479
3.99 0.51999998 -0.0020000001 4281428479
3.938 0.51599997 0.059999999 4281428479
3.901 0.51499999 0.122 4281428479
3.8629999 0.51300001 0.182 4281428479
4.027 0.54699999 -0.126 4281428479
3.993 0.54500002 -0.061000001 4281428479
3.948 0.542 0.0020000001 4281428479
3.9100001 0.54000002 0.064000003 4281428479
3.8699999 0.53799999 0.126 4281428479
3.836 0.53600001 0.186 4281428479
3.994 0.56999999 -0.12 4281428479
3.9579999 0.56800002 -0.055 4281428479
3.914 0.565 0.0070000002 4281428479
3.878 0.56199998 0.068999998 4281428479
3.8380001 0.56 0.13 4281428479
3.8 0.55800003 0.189 4281428479
3.96 0.59299999 -0.113 4281428479
3.924 0.59100002 -0.048999999 4281428479
3.885 0.588 0.012 4281428479
3.846 0.58499998 0.074000001 4281428479
3.812 0.583 0.134 4281428479
3.9219999 0.61500001 -0.106 4281428479
3.8929999 0.61299998 -0.043000001 4281428479
3.858 0.61000001 0.017999999 4281428479
3.8169999 0.60699999 0.079000004 4281428479
3.898 0.639 -0.1 4281428479
3.8659999 0.63599998 -0.037 4281428479
3.822 0.63099998 0.024 4281428479
3.7880001 0.62900001 0.085000001 4281428479
3.8599999 0.65899998 -0.093000002 4281428479
3.8269999 0.65600002 -0.029999999 4281428479
3.776 0.64999998 0.029999999 4281428479
3.832 0.68199998 -0.085000001 4281428479
3.8729999 0.69099998 -0.024 4281428479
3.8410001 0.70999998 -0.079000004 4281428479
3.809 0.0049999999 0.043000001 4281428479
3.8110001 0.003 0.017000001 4281428479
3.7920001 0.0020000001 -0.0089999996 4281428479
3.8410001 0.001 -0.035999998 4281428479
3.8410001 0 0.018999999 4281428479
3.8559999 0 -0.063000001 4281428479
3.7820001 0 -0.0070000002 4281428479
3.862 0 -0.090000004 4281428479
3.8329999 0 -0.034000002 4281428479
3.8369999 0 0.021 4281428479
3.8670001 0 -0.118 4281428479
3.8559999 0 -0.061000001 4281428479
3.796 0 -0.0049999999 4281428479
3.8840001 0 -0.145 4281428479
3.8629999 0 -0.089000002 4281428479
3.829 0 -0.032000002 4281428479
3.8299999 0 0.022 4281428479
3.892 0 -0.17299999 4281428479
3.8789999 0 -0.116 4281428479
3.8570001 0 -0.059 4281428479
3.7920001 0.001 -0.003 4281428479
3.902 0.001 -0.20100001 4281428479
3.8840001 0.001 -0.14300001 4281428479
3.8659999 0.0020000001 -0.086000003 4281428479
3.849 0.0020000001 -0.029999999 4281428479
3.826 0.003 0.025 4281428479
3.918 0.0020000001 -0.229 4281428479
3.8889999 0.0020000001 -0.171 4281428479
3.8789999 0.003 -0.114 4281428479
3.859 0.0040000002 -0.057 4281428479
3.78 0.0049999999 -0.001 4281428479
3.8759999 0.0060000001 0.054000001 4281428479
3.9260001 0.003 -0.257 4281428479
3.9089999 0.0040000002 -0.199 4281428479
3.8900001 0.0049999999 -0.142 4281428479
3.8699999 0.0060000001 -0.083999999 4281428479
3.846 0.0070000002 -0.028000001 4281428479
3.8269999 0.0080000004 0.027000001 4281428479
3.941 0.0049999999 -0.28600001 4281428479
3.9319999 0.0060000001 -0.228 4281428479
3.9030001 0.0070000002 -0.169 4281428479
3.8729999 0.0080000004 -0.111 4281428479
3.858 0.0089999996 -0.055 4281428479
3.819 0.0099999998 0 4281428479
3.911 0.0070000002 -0.31099999 4281428479
3.9400001 0.0080000004 -0.25600001 4281428479
3.9230001 0.0099999998 -0.197 4281428479
3.8900001 0.011 -0.139 4281428479
3.872 0.012 -0.082000002 4281428479
3.845 0.014 -0.025 4281428479
3.95 0.011 -0.28400001 4281428479
3.9360001 0.013 -0.22499999 4281428479
3.9119999 0.014 -0.167 4281428479
3.8929999 0.016000001 -0.109 4281428479
3.8629999 0.017000001 -0.052000001 4281428479
3.9170001 0.014 -0.30899999 4281428479
3.9449999 0.016000001 -0.25299999 4281428479
3.927 0.017000001 -0.19499999 4281428479
3.905 0.018999999 -0.13699999 4281428479
3.8870001 0.021 -0.079000004 4281428479
4.007 0.017999999 -0.345 4281428479
3.9549999 0.018999999 -0.28200001 4281428479
3.9360001 0.021 -0.223 4281428479
3.9159999 0.023 -0.164 4281428479
3.902 0.025 -0.107 4281428479
3.915 0.023 -0.30599999 4281428479
3.9519999 0.025 -0.25099999 4281428479
3.9330001 0.027000001 -0.192 4281428479
3.921 0.028999999 -0.134 4281428479
3.9560001 0.028000001 -0.33700001 4281428479
3.96 0.029999999 -0.27900001 4281428479
3.948 0.032000002 -0.22 4281428479
3.9319999 0.034000002 -0.162 4281428479
3.915 0.034000002 -0.303 4281428479
3.954 0.037 -0.248 4281428479
3.948 0.039999999 -0.19 4281428479
3.9430001 0.039999999 -0.333 4281428479
3.9590001 0.041999999 -0.27500001 4281428479
3.9630001 0.045000002 -0.21799999 4281428479
3.9059999 0.046999998 -0.29899999 4281428479
3.977 0.050999999 -0.245 4281428479
3.901 0.052999999 -0.32499999 4281428479
3.977 0.057 -0.27200001 4281428479
3.9200001 0.063000001 -0.29499999 4281428479
3.869 0.068000004 -0.317 4281428479
3.9159999 0.075999998 -0.347 4281428479
3.8629999 0.72100002 -0.19 4281428479
3.8340001 0.71200001 -0.126 4281428479
3.8069999 0.704 -0.064000003 4281428479
3.8859999 0.69700003 -0.185 4281428479
3.8640001 0.69 -0.122 4281428479
3.8180001 0.67900002 -0.059 4281428479
3.7909999 0.671 0.0020000001 4281428479
3.915 0.67500001 -0.18099999 4281428479
3.8829999 0.66600001 -0.117 4281428479
3.8529999 0.65799999 -0.054000001 4281428479
3.8180001 0.64899999 0.0070000002 4281428479
3.789 0.64099997 0.068000004 4281428479
3.937 0.65100002 -0.176 4281428479
3.908 0.64300001 -0.112 4281428479
3.8770001 0.634 -0.048999999 4281428479
3.839 0.625 0.012 4281428479
3.813 0.61900002 0.072999999 4281428479
3.964 0.62800002 -0.17299999 4281428479
3.9360001 0.62 -0.108 4281428479
3.8970001 0.61000001 -0.045000002 4281428479
3.8659999 0.602 0.017000001 4281428479
3.836 0.59500003 0.078000002 4281428479
3.8640001 0.597 0.14 4281428479
3.99 0.60399997 -0.169 4281428479
3.96 0.59600002 -0.105 4281428479
3.927 0.58700001 -0.041000001 4281428479
3.888 0.57800001 0.021 4281428479
3.8640001 0.57200003 0.082000002 4281428479
3.8329999 0.565 0.14300001 4281428479
4.0190001 0.57999998 -0.16599999 4281428479
3.9879999 0.57200003 -0.101 4281428479
3.957 0.56400001 -0.037 4281428479
3.9219999 0.55599999 0.025 4281428479
3.8900001 0.54799998 0.086999997 4281428479
3.8610001 0.542 0.148 4281428479
4.0430002 0.55500001 -0.164 4281428479
4.0170002 0.54799998 -0.097999997 4281428479
3.9809999 0.54000002 -0.034000002 4281428479
3.954 0.53299999 0.028000001 4281428479
3.915 0.52399999 0.090999998 4281428479
3.882 0.51700002 0.152 4281428479
4.0650001 0.52999997 -0.161 4281428479
4.0450001 0.523 -0.096000001 4281428479
4.0110002 0.51499999 -0.030999999 4281428479
3.9849999 0.509 0.032000002 4281428479
3.9400001 0.5 0.093999997 4281428479
3.9100001 0.493 0.156 4281428479
4.0799999 0.50300002 -0.15800001 4281428479
4.0809999 0.49900001 -0.093000002 4281428479
4.0450001 0.49200001 -0.028000001 4281428479
4.0159998 0.484 0.035 4281428479
3.971 0.47600001 0.097999997 4281428479
3.9430001 0.46900001 0.16 4281428479
4.0910001 0.47600001 -0.156 4281428479
4.1100001 0.47400001 -0.090999998 4281428479
4.0799999 0.46700001 -0.026000001 4281428479
4.0419998 0.45899999 0.037999999 4281428479
4.0040002 0.45100001 0.101 4281428479
3.97 0.44400001 0.163 4281428479
4.1030002 0.44800001 -0.154 4281428479
4.1459999 0.449 -0.090000004 4281428479
4.112 0.44100001 -0.024 4281428479
4.0780001 0.43399999 0.039999999 4281428479
4.0370002 0.426 0.104 4281428479
4.0050001 0.41999999 0.167 4281428479
4.1199999 0.421 -0.152 4281428479
4.1729999 0.42199999 -0.088 4281428479
4.1399999 0.41499999 -0.022 4281428479
4.105 0.40799999 0.041999999 4281428479
4.066 0.40099999 0.107 4281428479
4.0419998 0.39500001 0.17 4281428479
4.131 0.39300001 -0.15099999 4281428479
4.21 0.39700001 -0.086999997 4281428479
4.1690001 0.389 -0.02 4281428479
4.1360002 0.382 0.044 4281428479
4.1009998 0.375 0.109 4281428479
4.0669999 0.368 0.17200001 4281428479
4.145 0.36500001 -0.15000001 4281428479
4.2470002 0.37 -0.086000003 4281428479
4.2080002 0.36199999 -0.018999999 4281428479
4.1719999 0.35499999 0.046 4281428479
4.1329999 0.34799999 0.111 4281428479
4.105 0.34200001 0.175 4281428479
4.1539998 0.33700001 -0.149 4281428479
4.2069998 0.33700001 -0.085000001 4281428479
4.1799998 0.331 -0.017999999 4281428479
4.1490002 0.324 0.046999998 4281428479
4.1279998 0.31900001 0.111 4281428479
4.1040001 0.31299999 0.176 4281428479
4.171 0.31 -0.149 4281428479
4.1760001 0.30599999 -0.082999997 4281428479
4.1490002 0.29899999 -0.017000001 4281428479
4.1230001 0.29300001 0.046999998 4281428479
4.0949998 0.287 0.111 4281428479
4.073 0.28200001 0.175 4281428479
4.1719999 0.28 -0.149 4281428479
4.1440001 0.27399999 -0.082000002 4281428479
4.118 0.26800001 -0.017000001 4281428479
4.0900002 0.26199999 0.046 4281428479
4.059 0.25600001 0.11 4281428479
4.039 0.25099999 0.17299999 4281428479
4.138 0.249 -0.147 4281428479
4.1139998 0.243 -0.082000002 4281428479
4.0890002 0.237 -0.017000001 4281428479
4.0580001 0.23100001 0.046 4281428479
4.0339999 0.226 0.109 4281428479
4.0170002 0.221 0.17200001 4281428479
4.1069999 0.219 -0.147 4281428479
4.0830002 0.213 -0.082000002 4281428479
4.0609999 0.207 -0.017000001 4281428479
4.0250001 0.20100001 0.045000002 4281428479
3.9979999 0.19599999 0.107 4281428479
3.9760001 0.19 0.169 4281428479
4.073 0.18799999 -0.146 4281428479
4.0489998 0.183 -0.082000002 4281428479
4.027 0.177 -0.017999999 4281428479
4.0019999 0.17200001 0.044 4281428479
3.97 0.16599999 0.106 4281428479
3.947 0.161 0.167 4281428479
4.046 0.15899999 -0.146 4281428479
4.02 0.153 -0.082000002 4281428479
3.9920001 0.148 -0.018999999 4281428479
3.9690001 0.14300001 0.041999999 4281428479
3.9460001 0.13699999 0.104 4281428479
3.925 0.133 0.16500001 4281428479
4.0190001 0.13 -0.146 4281428479
3.9909999 0.124 -0.082999997 4281428479
3.961 0.119 -0.02 4281428479
3.941 0.114 0.039999999 4281428479
3.911 0.109 0.101 4281428479
3.8940001 0.104 0.162 4281428479
3.9879999 0.101 -0.147 4281428479
3.9549999 0.094999999 -0.083999999 4281428479
3.9289999 0.090000004 -0.022 4281428479
3.904 0.085000001 0.037999999 4281428479
3.8859999 0.081 0.098999999 4281428479
3.8699999 0.075999998 0.15899999 4281428479
3.967 0.072999999 -0.148 4281428479
3.931 0.068000004 -0.085000001 4281428479
3.898 0.063000001 -0.024 4281428479
3.8770001 0.057999998 0.035999998 4281428479
3.8529999 0.052999999 0.096000001 4281428479
3.9260001 0.045000002 -0.149 4281428479
3.9059999 0.039999999 -0.086999997 4281428479
3.8699999 0.035 -0.026000001 4281428479
3.848 0.030999999 0.033 4281428479
3.8169999 0.026000001 0.092 4281428479
3.9070001 0.017000001 -0.15099999 4281428479
3.882 0.013 -0.089000002 4281428479
3.855 0.0080000004 -0.028999999 4281428479
3.839 0.0040000002 0.029999999 4281428479
3.8770001 -0.0089999996 -0.152 4281428479
3.858 -0.013 -0.092 4281428479
3.881 -0.017999999 -0.032000002 4281428479
3.891 0.035999998 -0.31600001 4281428479
3.9419999 0.037999999 -0.29300001 4281428479
3.957 0.039999999 -0.333 4281428479
3.9690001 0.037999999 -0.26699999 4281428479
3.918 0.039000001 -0.30199999 4281428479
3.961 0.037999999 -0.23899999 4281428479
3.9860001 0.041999999 -0.347 4281428479
3.967 0.039000001 -0.278 4281428479
3.951 0.037 -0.211 4281428479
3.898 0.039999999 -0.31200001 4281428479
3.961 0.037999999 -0.25 4281428479
3.944 0.035999998 -0.183 4281428479
3.951 0.039000001 -0.289 4281428479
3.95 0.037 -0.222 4281428479
3.931 0.035 -0.155 4281428479
3.9230001 0.039000001 -0.32499999 4281428479
3.9649999 0.037 -0.26199999 4281428479
3.941 0.035999998 -0.19400001 4281428479
3.9189999 0.034000002 -0.127 4281428479
3.9300001 0.037 -0.29800001 4281428479
3.9530001 0.035 -0.233 4281428479
3.9319999 0.034000002 -0.16599999 4281428479
3.9059999 0.032000002 -0.098999999 4281428479
3.961 0.035999998 -0.34 4281428479
3.9630001 0.035 -0.273 4281428479
3.941 0.033 -0.205 4281428479
3.915 0.030999999 -0.13699999 4281428479
3.8900001 0.029999999 -0.071000002 4281428479
3.915 0.033 -0.308 4281428479
3.9549999 0.032000002 -0.244 4281428479
3.931 0.029999999 -0.177 4281428479
3.902 0.028999999 -0.11 4281428479
3.869 0.027000001 -0.044 4281428479
3.957 0.029999999 -0.28400001 4281428479
3.9430001 0.028999999 -0.21600001 4281428479
3.9119999 0.027000001 -0.149 4281428479
3.891 0.026000001 -0.082000002 4281428479
3.849 0.024 -0.017000001 4281428479
3.8940001 0.028000001 -0.31799999 4281428479
3.95 0.027000001 -0.25600001 4281428479
3.9260001 0.025 -0.18799999 4281428479
3.9030001 0.024 -0.121 4281428479
3.8740001 0.022 -0.055 4281428479
3.8329999 0.021 0.0089999996 4281428479
3.9489999 0.025 -0.29499999 4281428479
3.9389999 0.023 -0.228 4281428479
3.915 0.022 -0.16 4281428479
3.8889999 0.02 -0.093999997 4281428479
3.855 0.018999999 -0.028000001 4281428479
3.8380001 0.017999999 0.035 4281428479
3.9489999 0.02 -0.26800001 4281428479
3.9200001 0.018999999 -0.199 4281428479
3.8940001 0.017999999 -0.132 4281428479
3.8800001 0.016000001 -0.067000002 4281428479
3.829 0.015 -0.0020000001 4281428479
3.845 0.014 0.061999999 4281428479
3.927 0.016000001 -0.23899999 4281428479
3.901 0.014 -0.171 4281428479
3.8840001 0.013 -0.105 4281428479
3.8599999 0.012 -0.039999999 4281428479
3.8299999 0.011 0.024 4281428479
3.9159999 0.011 -0.211 4281428479
3.891 0.0099999998 -0.14399999 4281428479
3.8740001 0.0089999996 -0.079000004 4281428479
3.835 0.0080000004 -0.014 4281428479
3.8770001 0.0070000002 0.050000001 4281428479
3.8989999 0.0060000001 -0.183 4281428479
3.881 0.0049999999 -0.117 4281428479
3.8559999 0.0040000002 -0.052000001 4281428479
3.823 0.003 0.012 4281428479
3.8759999 0 -0.156 4281428479
3.865 0 -0.090000004 4281428479
3.8340001 0 -0.025 4281428479
3.8740001 -0.0040000002 -0.12899999 4281428479
3.8510001 -0.0049999999 -0.064000003 4281428479
3.8050001 -0.0060000001 0 4281428479
3.8510001 -0.0099999998 -0.102 4281428479
3.845 -0.011 -0.037 4281428479
3.848 -0.016000001 -0.075999998 4281428479
3.8699999 -0.013 -0.155 4281428479
3.8610001 -0.0089999996 -0.093000002 4281428479
3.8429999 -0.0040000002 -0.030999999 4281428479
3.868 0 0.029999999 4281428479
3.9000001 0.012 -0.149 4281428479
3.882 0.016000001 -0.086000003 4281428479
3.855 0.02 -0.024 4281428479
3.8410001 0.024 0.037 4281428479
3.8340001 0.028000001 0.097999997 4281428479
3.9189999 0.037999999 -0.142 4281428479
3.9030001 0.043000001 -0.078000002 4281428479
3.8659999 0.046 -0.016000001 4281428479
3.8670001 0.050000001 0.045000002 4281428479
3.8540001 0.054000001 0.106 4281428479
3.9170001 0.059 0.171 4281428479
3.944 0.064999998 -0.134 4281428479
3.9319999 0.068999998 -0.071000002 4281428479
3.898 0.072999999 -0.0080000004 4281428479
3.891 0.077 0.052999999 4281428479
3.8770001 0.081 0.115 4281428479
3.8670001 0.083999999 0.177 4281428479
3.9690001 0.092 -0.126 4281428479
3.9530001 0.096000001 -0.061999999 4281428479
3.9260001 0.098999999 0 4281428479
3.925 0.103 0.063000001 4281428479
3.8989999 0.107 0.125 4281428479
3.8900001 0.111 0.18700001 4281428479
3.9920001 0.12 -0.118 4281428479
3.9809999 0.123 -0.054000001 4281428479
3.961 0.127 0.0089999996 4281428479
3.9460001 0.13 0.071999997 4281428479
3.9289999 0.134 0.134 4281428479
3.911 0.13699999 0.19599999 4281428479
4.0209999 0.147 -0.109 4281428479
4.0029998 0.15000001 -0.045000002 4281428479
3.983 0.154 0.017999999 4281428479
3.9719999 0.15700001 0.082000002 4281428479
3.951 0.161 0.145 4281428479
3.9330001 0.164 0.207 4281428479
4.046 0.175 -0.1 4281428479
4.0279999 0.178 -0.035 4281428479
4.0110002 0.18099999 0.028000001 4281428479
3.9960001 0.184 0.092 4281428479
3.977 0.18799999 0.155 4281428479
3.961 0.191 0.21799999 4281428479
4.0650001 0.20200001 -0.090000004 4281428479
4.053 0.206 -0.025 4281428479
4.0339999 0.208 0.037999999 4281428479
4.0190001 0.212 0.103 4281428479
4 0.215 0.16599999 4281428479
3.9860001 0.21799999 0.23 4281428479
4.0960002 0.23100001 -0.079999998 4281428479
4.0830002 0.234 -0.015 4281428479
4.059 0.236 0.048999999 4281428479
4.0469999 0.23999999 0.114 4281428479
4.026 0.242 0.178 4281428479
4.013 0.24600001 0.242 4281428479
4.1240001 0.259 -0.07 4281428479
4.1069999 0.26199999 -0.0040000002 4281428479
4.0879998 0.264 0.061000001 4281428479
4.0669999 0.26699999 0.125 4281428479
4.0489998 0.27000001 0.19 4281428479
4.0339999 0.273 0.25400001 4281428479
4.1479998 0.28799999 -0.059 4281428479
4.1300001 0.28999999 0.0070000002 4281428479
4.1160002 0.29300001 0.071999997 4281428479
4.0929999 0.29499999 0.138 4281428479
4.072 0.29800001 0.20200001 4281428479
4.0599999 0.301 0.26699999 4281428479
4.1690001 0.31600001 -0.046999998 4281428479
4.1570001 0.31900001 0.018999999 4281428479
4.1360002 0.32100001 0.085000001 4281428479
4.1170001 0.324 0.15000001 4281428479
4.092 0.32600001 0.215 4281428479
4.0489998 0.32600001 0.278 4281428479
4.1919999 0.345 -0.035 4281428479
4.178 0.347 0.030999999 4281428479
4.1469998 0.34900001 0.097000003 4281428479
4.1009998 0.34900001 0.162 4281428479
4.0549998 0.34900001 0.22499999 4281428479
4.0120001 0.34900001 0.287 4281428479
4.1890001 0.37200001 -0.022 4281428479
4.1529999 0.37200001 0.043000001 4281428479
4.1030002 0.37099999 0.108 4281428479
4.0609999 0.37099999 0.17200001 4281428479
4.0170002 0.37099999 0.235 4281428479
3.974 0.37099999 0.296 4281428479
4.1500001 0.39500001 -0.0089999996 4281428479
4.1090002 0.39399999 0.055 4281428479
4.066 0.39399999 0.12 4281428479
4.0229998 0.39300001 0.183 4281428479
3.9790001 0.39300001 0.245 4281428479
3.938 0.39300001 0.30599999 4281428479
4.1139998 0.417 0.0020000001 4281428479
4.0760002 0.417 0.068000004 4281428479
4.0300002 0.41499999 0.131 4281428479
3.9879999 0.41499999 0.19400001 4281428479
3.9419999 0.414 0.255 4281428479
3.908 0.414 0.31600001 4281428479
4.072 0.43799999 0.016000001 4281428479
4.0359998 0.43799999 0.079999998 4281428479
3.9909999 0.43700001 0.14300001 4281428479
3.9460001 0.43599999 0.205 4281428479
3.9030001 0.435 0.26499999 4281428479
3.9170001 0.44 0.33000001 4281428479
4.033 0.45899999 0.028999999 4281428479
3.997 0.45899999 0.092 4281428479
3.9560001 0.458 0.155 4281428479
3.9130001 0.456 0.21600001 4281428479
3.878 0.456 0.27700001 4281428479
3.9960001 0.47999999 0.041999999 4281428479
3.96 0.479 0.105 4281428479
3.925 0.47799999 0.167 4281428479
3.8800001 0.477 0.227 4281428479
3.888 0.48100001 0.29100001 4281428479
3.9649999 0.50099999 0.055 4281428479
3.9319999 0.5 0.118 4281428479
3.888 0.498 0.17900001 4281428479
3.852 0.49700001 0.23899999 4281428479
3.928 0.51999998 0.068999998 4281428479
3.8959999 0.51899999 0.131 4281428479
3.8570001 0.51800001 0.191 4281428479
3.9030001 0.54100001 0.082000002 4281428479
3.8610001 0.53799999 0.14300001 4281428479
3.8989999 0.54699999 0.207 4281428479
3.8629999 0.55900002 0.096000001 4281428479
3.829 0.55699998 0.156 4281428479
3.8299999 0.57700002 0.11 4281428479
3.8399999 0.58200002 0.171 4281428479
3.858 0.60500002 0.125 4281428479
3.845 -0.026000001 -0.072999999 4281428479
3.8510001 -0.017999999 -0.098999999 4281428479
3.8399999 -0.016000001 -0.043000001 4281428479
3.8610001 -0.0089999996 -0.125 4281428479
3.8510001 -0.0080000004 -0.068000004 4281428479
3.826 -0.0060000001 -0.012 4281428479
3.885 0 -0.15099999 4281428479
3.875 0.001 -0.093999997 4281428479
3.8510001 0.0020000001 -0.037 4281428479
3.826 0.0040000002 0.017999999 4281428479
3.902 0.0089999996 -0.177 4281428479
3.888 0.0099999998 -0.12 4281428479
3.8729999 0.012 -0.063000001 4281428479
3.8340001 0.014 -0.0060000001 4281428479
3.836 0.016000001 0.048999999 4281428479
3.921 0.018999999 -0.204 4281428479
3.9059999 0.02 -0.146 4281428479
3.888 0.022 -0.088 4281428479
3.8640001 0.024 -0.030999999 4281428479
3.8410001 0.026000001 0.025 4281428479
3.842 0.028000001 0.081 4281428479
3.9400001 0.028999999 -0.23100001 4281428479
3.9170001 0.030999999 -0.17200001 4281428479
3.9059999 0.033 -0.114 4281428479
3.898 0.035 -0.056000002 4281428479
3.855 0.037 0 4281428479
3.8529999 0.039000001 0.056000002 4281428479
3.9690001 0.039999999 -0.25799999 4281428479
3.944 0.041999999 -0.199 4281428479
3.9330001 0.044 -0.14 4281428479
3.9100001 0.046 -0.081 4281428479
3.8759999 0.048 -0.024 4281428479
3.8510001 0.050000001 0.032000002 4281428479
3.9630001 0.050999999 -0.28299999 4281428479
3.964 0.052999999 -0.22499999 4281428479
3.9530001 0.055 -0.16599999 4281428479
3.9289999 0.057 -0.107 4281428479
3.9100001 0.059999999 -0.048999999 4281428479
3.875 0.061999999 0.0080000004 4281428479
3.905 0.061000001 -0.30500001 4281428479
3.994 0.064999998 -0.252 4281428479
3.974 0.067000002 -0.192 4281428479
3.9530001 0.07 -0.133 4281428479
3.931 0.071999997 -0.074000001 4281428479
3.9070001 0.074000001 -0.016000001 4281428479
3.8540001 0.071999997 -0.32600001 4281428479
3.964 0.075999998 -0.27599999 4281428479
3.994 0.079999998 -0.219 4281428479
3.9719999 0.082000002 -0.15899999 4281428479
3.9530001 0.085000001 -0.098999999 4281428479
3.9330001 0.086999997 -0.039999999 4281428479
3.974 0.086000003 -0.361 4281428479
3.9119999 0.086999997 -0.29699999 4281428479
4.0139999 0.093000002 -0.245 4281428479
4.0019999 0.094999999 -0.185 4281428479
3.973 0.097000003 -0.124 4281428479
3.9560001 0.1 -0.064999998 4281428479
3.855 0.097999997 -0.317 4281428479
3.967 0.104 -0.26699999 4281428479
4.0190001 0.108 -0.211 4281428479
4 0.111 -0.15000001 4281428479
3.983 0.114 -0.090000004 4281428479
3.8740001 0.111 -0.34299999 4281428479
3.9130001 0.115 -0.28799999 4281428479
4.0349998 0.122 -0.236 4281428479
4.0219998 0.125 -0.176 4281428479
4.007 0.12800001 -0.115 4281428479
3.8440001 0.123 -0.36500001 4281428479
3.8759999 0.127 -0.30899999 4281428479
3.9849999 0.134 -0.25799999 4281428479
4.046 0.139 -0.20100001 4281428479
4.0339999 0.142 -0.14 4281428479
3.8269999 0.138 -0.329 4281428479
3.925 0.145 -0.278 4281428479
4.0450001 0.153 -0.22499999 4281428479
4.0580001 0.15700001 -0.16500001 4281428479
3.799 0.15000001 -0.34999999 4281428479
3.8770001 0.15700001 -0.29800001 4281428479
3.987 0.16500001 -0.24600001 4281428479
4.0809999 0.17200001 -0.191 4281428479
3.8269999 0.168 -0.317 4281428479
3.934 0.177 -0.26699999 4281428479
4.0599999 0.186 -0.214 4281428479
3.7909999 0.18099999 -0.33700001 4281428479
3.8829999 0.18799999 -0.28600001 4281428479
4.0040002 0.198 -0.234 4281428479
3.852 0.198 -0.36500001 4281428479
3.836 0.2 -0.30500001 4281428479
3.9549999 0.20999999 -0.25400001 4281428479
3.793 0.213 -0.324 4281428479
3.9059999 0.223 -0.27399999 4281428479
3.7650001 0.226 -0.34400001 4281428479
3.8640001 0.236 -0.294 4281428479
3.8069999 0.244 -0.37 4281428479
3.8139999 0.248 -0.31200001 4281428479
3.7709999 0.26100001 -0.33000001 4281428479
3.7490001 0.27399999 -0.34900001 4281428479
3.855 0.65700001 0.041999999 4281428479
3.8239999 0.625 0.037999999 4281428479
3.7850001 0.616 0.097999997 4281428479
3.849 0.602 0.034000002 4281428479
3.8269999 0.59600002 0.094999999 4281428479
3.8080001 0.58999997 0.156 4281428479
3.8840001 0.58099997 0.029999999 4281428479
3.8559999 0.57300001 0.090999998 4281428479
3.819 0.565 0.15099999 4281428479
3.9189999 0.55900002 0.025 4281428479
3.892 0.551 0.086999997 4281428479
3.859 0.54299998 0.148 4281428479
3.8699999 0.542 0.20999999 4281428479
3.944 0.53500003 0.02 4281428479
3.9219999 0.528 0.082999997 4281428479
3.888 0.51999998 0.14399999 4281428479
3.8559999 0.51300001 0.204 4281428479
3.8499999 0.509 0.26499999 4281428479
3.9809999 0.51200002 0.015 4281428479
3.9530001 0.505 0.078000002 4281428479
3.9170001 0.49700001 0.139 4281428479
3.8889999 0.49000001 0.2 4281428479
3.8570001 0.48300001 0.25999999 4281428479
4.0100002 0.48800001 0.0089999996 4281428479
3.9849999 0.48199999 0.071999997 4281428479
3.954 0.47400001 0.134 4281428479
3.9200001 0.46700001 0.19499999 4281428479
3.8889999 0.46000001 0.25600001 4281428479
3.902 0.45899999 0.31900001 4281428479
4.0489998 0.465 0.003 4281428479
4.0190001 0.458 0.067000002 4281428479
3.9879999 0.45100001 0.12899999 4281428479
3.954 0.44400001 0.191 4281428479
3.9170001 0.43700001 0.25099999 4281428479
3.8940001 0.43099999 0.31099999 4281428479
4.092 0.442 -0.003 4281428479
4.0580001 0.435 0.059999999 4281428479
4.0240002 0.428 0.123 4281428479
3.9909999 0.421 0.185 4281428479
3.9549999 0.414 0.24600001 4281428479
3.9200001 0.40700001 0.30599999 4281428479
4.1230001 0.41800001 -0.0099999998 4281428479
4.0970001 0.41100001 0.054000001 4281428479
4.059 0.40400001 0.117 4281428479
4.026 0.39700001 0.18000001 4281428479
3.9890001 0.38999999 0.241 4281428479
3.9590001 0.384 0.30199999 4281428479
4.1599998 0.39300001 -0.017000001 4281428479
4.1230001 0.38600001 0.046999998 4281428479
4.0970001 0.38 0.111 4281428479
4.0619998 0.373 0.17299999 4281428479
4.026 0.366 0.235 4281428479
3.9979999 0.36000001 0.29699999 4281428479
4.198 0.36899999 -0.025 4281428479
4.1659999 0.36199999 0.039000001 4281428479
4.1329999 0.35499999 0.103 4281428479
4.0960002 0.34799999 0.167 4281428479
4.0650001 0.34200001 0.229 4281428479
4.0359998 0.336 0.29100001 4281428479
4.1900001 0.34 -0.033 4281428479
4.164 0.33399999 0.030999999 4281428479
4.1430001 0.32800001 0.094999999 4281428479
4.112 0.322 0.15899999 4281428479
4.086 0.31600001 0.222 4281428479
4.0679998 0.31099999 0.28400001 4281428479
4.1620002 0.31 -0.041999999 4281428479
4.1399999 0.30399999 0.022 4281428479
4.1110001 0.29800001 0.086000003 4281428479
4.0890002 0.292 0.149 4281428479
4.0630002 0.28600001 0.211 4281428479
4.039 0.28099999 0.273 4281428479
4.1389999 0.28099999 -0.050000001 4281428479
4.1129999 0.27500001 0.013 4281428479
4.0840001 0.26899999 0.075999998 4281428479
4.0630002 0.26300001 0.139 4281428479
4.0359998 0.257 0.20100001 4281428479
4.0100002 0.252 0.26199999 4281428479
4.112 0.25099999 -0.059 4281428479
4.0879998 0.24600001 0.0040000002 4281428479
4.0609999 0.23999999 0.067000002 4281428479
4.039 0.235 0.12899999 4281428479
4.0050001 0.229 0.19 4281428479
3.9849999 0.22400001 0.25099999 4281428479
4.085 0.223 -0.068000004 4281428479
4.0599999 0.21699999 -0.0049999999 4281428479
4.04 0.212 0.057 4281428479
4.013 0.206 0.118 4281428479
3.9860001 0.20100001 0.17900001 4281428479
3.9619999 0.19599999 0.23999999 4281428479
4.059 0.19499999 -0.077 4281428479
4.0310001 0.189 -0.014 4281428479
4.0079999 0.184 0.046999998 4281428479
3.98 0.17900001 0.108 4281428479
3.9560001 0.17399999 0.168 4281428479
3.934 0.169 0.228 4281428479
4.0349998 0.167 -0.086000003 4281428479
4.0110002 0.162 -0.024 4281428479
3.9879999 0.15700001 0.037 4281428479
3.9579999 0.152 0.097000003 4281428479
3.9360001 0.147 0.15700001 4281428479
3.9100001 0.142 0.21600001 4281428479
4.0120001 0.14 -0.096000001 4281428479
3.9879999 0.13500001 -0.034000002 4281428479
3.9590001 0.13 0.026000001 4281428479
3.9430001 0.126 0.086000003 4281428479
3.9159999 0.121 0.146 4281428479
3.895 0.116 0.205 4281428479
3.987 0.114 -0.105 4281428479
3.961 0.109 -0.044 4281428479
3.928 0.104 0.015 4281428479
3.915 0.098999999 0.075000003 4281428479
3.895 0.094999999 0.134 4281428479
3.872 0.090000004 0.193 4281428479
3.9679999 0.088 -0.116 4281428479
3.9389999 0.082999997 -0.054000001 4281428479
3.901 0.078000002 0.0049999999 4281428479
3.891 0.074000001 0.064000003 4281428479
3.858 0.068999998 0.122 4281428479
3.911 0.066 0.184 4281428479
3.941 0.061999999 -0.125 4281428479
3.9119999 0.057 -0.064999998 4281428479
3.8299999 0.052000001 -0.0049999999 4281428479
3.8640001 0.048 0.052999999 4281428479
3.845 0.044 0.111 4281428479
3.9170001 0.037 -0.13600001 4281428479
3.9000001 0.032000002 -0.075999998 4281428479
3.8570001 0.028000001 -0.016000001 4281428479
3.8399999 0.024 0.041000001 4281428479
3.8989999 0.012 -0.146 4281428479
3.8759999 0.0080000004 -0.086999997 4281428479
3.8429999 0.0040000002 -0.028000001 4281428479
3.882 0 0.029999999 4281428479
3.8710001 -0.011 -0.15700001 4281428479
3.852 -0.015 -0.097999997 4281428479
3.885 -0.02 -0.039999999 4281428479
3.822 0.214 -0.36899999 4281428479
3.78 0.205 -0.33899999 4281428479
3.8210001 0.2 -0.317 4281428479
3.779 0.193 -0.35100001 4281428479
3.8740001 0.19499999 -0.296 4281428479
3.8039999 0.186 -0.32800001 4281428479
3.9200001 0.18799999 -0.273 4281428479
3.809 0.18099999 -0.36700001 4281428479
3.8499999 0.18000001 -0.30599999 4281428479
3.973 0.182 -0.25 4281428479
3.79 0.17200001 -0.34 4281428479
3.901 0.17299999 -0.285 4281428479
4.0289998 0.176 -0.227 4281428479
3.832 0.164 -0.31799999 4281428479
3.951 0.16599999 -0.26199999 4281428479
4.072 0.168 -0.20299999 4281428479
3.7969999 0.156 -0.354 4281428479
3.881 0.15700001 -0.29699999 4281428479
4.0110002 0.15899999 -0.23999999 4281428479
4.0570002 0.15800001 -0.176 4281428479
3.8180001 0.148 -0.331 4281428479
3.934 0.149 -0.27500001 4281428479
4.059 0.15099999 -0.21699999 4281428479
4.04 0.147 -0.149 4281428479
3.8759999 0.14 -0.31099999 4281428479
3.9920001 0.141 -0.25400001 4281428479
4.0419998 0.139 -0.189 4281428479
4.0180001 0.13600001 -0.122 4281428479
3.8069999 0.13 -0.34400001 4281428479
3.9159999 0.13 -0.289 4281428479
4.0430002 0.132 -0.23100001 4281428479
4.0229998 0.12800001 -0.163 4281428479
3.997 0.124 -0.094999999 4281428479
3.8410001 0.12 -0.322 4281428479
3.9690001 0.121 -0.26699999 4281428479
4.0250001 0.12 -0.204 4281428479
4.0029998 0.116 -0.13600001 4281428479
3.971 0.113 -0.068999998 4281428479
3.8940001 0.11 -0.30199999 4281428479
4.0180001 0.111 -0.244 4281428479
4.0009999 0.107 -0.177 4281428479
3.971 0.104 -0.109 4281428479
3.9489999 0.101 -0.044 4281428479
