# .PCD v0.7 - Point Cloud Data file format
VERSION 0.7
FIELDS x y z rgb
SIZE 4 4 4 4
TYPE F F F U
COUNT 1 1 1 1
WIDTH 699
HEIGHT 1
VIEWPOINT 0 0 0 1 0 0 0
POINTS 699
DATA ascii
4.1209998 0.39300001 -0.18099999 4280485680
4.1020002 0.39500001 -0.115 4280485680
4.0879998 0.39700001 -0.050999999 4280485680
4.0710001 0.40000001 0.013 4280485680
4.0910001 0.405 0.077 4280485680
4.1550002 0.42300001 -0.252 4280485680
4.138 0.42399999 -0.185 4280485680
4.1209998 0.426 -0.119 4280485680
4.1040001 0.428 -0.054000001 4280485680
4.0869999 0.43000001 0.0099999998 4280485680
4.079 0.433 0.074000001 4280485680
4.1690001 0.454 -0.25600001 4280485680
4.1539998 0.45500001 -0.189 4280485680
4.138 0.45699999 -0.123 4280485680
4.1230001 0.45899999 -0.057 4280485680
4.105 0.46000001 0.0070000002 4280485680
4.0939999 0.463 0.071999997 4280485680
4.1690001 0.484 -0.259 4280485680
4.171 0.48699999 -0.193 4280485680
4.158 0.48800001 -0.126 4280485680
4.1360002 0.48899999 -0.059999999 4280485680
4.1209998 0.491 0.0049999999 4280485680
4.1079998 0.493 0.07 4280485680
4.1370001 0.509 -0.25999999 4280485680
4.197 0.51899999 -0.197 4280485680
4.1729999 0.51999998 -0.12899999 4280485680
4.1539998 0.52100003 -0.063000001 4280485680
4.145 0.523 0.0020000001 4280485680
4.125 0.52399999 0.068000004 4280485680
4.1090002 0.53500003 -0.26100001 4280485680
4.2090001 0.551 -0.2 4280485680
4.1900001 0.55199999 -0.132 4280485680
4.1750002 0.55299997 -0.064999998 4280485680
4.152 0.55299997 0.001 4280485680
4.1409998 0.55500001 0.067000002 4280485680
4.0890002 0.56199998 -0.26100001 4280485680
4.2210002 0.583 -0.20200001 4280485680
4.204 0.58399999 -0.134 4280485680
4.1960001 0.58600003 -0.067000002 4280485680
4.1680002 0.58499998 0 4280485680
4.1560001 0.58700001 0.064999998 4280485680
4.0650001 0.588 -0.26100001 4280485680
4.2069998 0.611 -0.20299999 4280485680
4.224 0.61699998 -0.13600001 4280485680
4.21 0.61799997 -0.068000004 4280485680
4.1900001 0.61799997 -0.001 4280485680
4.1719999 0.61900002 0.064999998 4280485680
4.046 0.61500001 -0.26100001 4280485680
4.1810002 0.63800001 -0.20299999 4280485680
4.2420001 0.64999998 -0.138 4280485680
4.2249999 0.64999998 -0.068999998 4280485680
4.2069998 0.64999998 -0.0020000001 4280485680
4.1950002 0.65200001 0.064999998 4280485680
4.0229998 0.63999999 -0.26100001 4280485680
4.1589999 0.66399997 -0.20299999 4280485680
4.256 0.68199998 -0.139 4280485680
4.2389998 0.68199998 -0.07 4280485680
4.2249999 0.68300003 -0.0020000001 4280485680
4.2090001 0.68400002 0.064999998 4280485680
4.0009999 0.66500002 -0.25999999 4280485680
4.1360002 0.69 -0.20200001 4280485680
4.2709999 0.71499997 -0.14 4280485680
4.2579999 0.71600002 -0.07 4280485680
4.2309999 0.71399999 -0.0020000001 4280485680
4.2259998 0.71700001 0.064999998 4280485680
3.9879999 0.69199997 -0.259 4280485680
4.118 0.71700001 -0.20100001 4280485680
4.2529998 0.74299997 -0.139 4280485680
4.276 0.74900001 -0.07 4280485680
4.25 0.74800003 -0.0020000001 4280485680
4.2410002 0.75 0.066 4280485680
3.967 0.71700001 -0.25799999 4280485680
4.1009998 0.74299997 -0.2 4280485680
4.2270002 0.76800001 -0.13699999 4280485680
4.2930002 0.78299999 -0.07 4280485680
4.27 0.78200001 -0.001 4280485680
4.2490001 0.78100002 0.067000002 4280485680
3.9519999 0.74299997 -0.25600001 4280485680
4.0799999 0.76899999 -0.198 4280485680
4.2129998 0.796 -0.13600001 4280485680
4.3039999 0.81599998 -0.068999998 4280485680
4.2880001 0.81599998 0 4280485680
4.2740002 0.81699997 0.068999998 4280485680
3.937 0.76899999 -0.25400001 4280485680
4.0609999 0.79500002 -0.19599999 4280485680
4.1960001 0.824 -0.134 4280485680
4.322 0.85100001 -0.068000004 4280485680
4.303 0.85000002 0.001 4280485680
4.243 0.84100002 0.07 4280485680
3.9230001 0.79500002 -0.252 4280485680
4.052 0.82200003 -0.19400001 4280485680
4.1810002 0.85100001 -0.132 4280485680
4.3130002 0.88 -0.066 4280485680
4.2509999 0.87 0.003 4280485680
4.1919999 0.861 0.071000002 4280485680
3.914 0.82200003 -0.25 4280485680
4.0349998 0.84799999 -0.192 4280485680
4.1680002 0.87800002 -0.13 4280485680
4.2620001 0.90100002 -0.063000001 4280485680
4.1950002 0.889 0.0049999999 4280485680
4.138 0.88 0.071999997 4280485680
3.901 0.84799999 -0.24699999 4280485680
4.0219998 0.875 -0.189 4280485680
4.1589999 0.90700001 -0.127 4280485680
4.2090001 0.92000002 -0.059999999 4280485680
4.1440001 0.90799999 0.0080000004 4280485680
4.0809999 0.898 0.074000001 4280485680
3.885 0.87300003 -0.244 4280485680
4.0120001 0.903 -0.186 4280485680
4.1469998 0.935 -0.124 4280485680
4.1440001 0.93599999 -0.056000002 4280485680
4.0900002 0.926 0.011 4280485680
4.027 0.91500002 0.075999998 4280485680
3.8729999 0.898 -0.23999999 4280485680
3.9990001 0.92900002 -0.182 4280485680
4.1290002 0.96100003 -0.12 4280485680
4.0949998 0.95499998 -0.052000001 4280485680
4.0300002 0.94199997 0.014 4280485680
3.973 0.93099999 0.079000004 4280485680
3.8670001 0.926 -0.237 4280485680
3.99 0.95599997 -0.17900001 4280485680
4.0970001 0.98299998 -0.116 4280485680
4.04 0.972 -0.048 4280485680
3.9790001 0.95899999 0.017000001 4280485680
3.9230001 0.94800001 0.082000002 4280485680
3.8540001 0.95099998 -0.233 4280485680
3.9820001 0.98400003 -0.17399999 4280485680
4.0409999 1 -0.11 4280485680
3.9849999 0.98799998 -0.043000001 4280485680
3.9219999 0.97399998 0.021 4280485680
3.8629999 0.96200001 0.085000001 4280485680
3.848 0.97799999 -0.229 4280485680
3.9749999 1.011 -0.17 4280485680
3.99 1.016 -0.105 4280485680
3.9349999 1.0039999 -0.037999999 4280485680
3.872 0.99000001 0.025 4280485680
3.8280001 0.98100001 0.088 4280485680
3.839 1.0039999 -0.22400001 4280485680
3.964 1.0369999 -0.16500001 4280485680
3.934 1.031 -0.098999999 4280485680
3.8789999 1.018 -0.033 4280485680
3.8210001 1.005 0.029999999 4280485680
3.836 1.031 -0.219 4280485680
3.937 1.059 -0.15899999 4280485680
3.8829999 1.046 -0.093000002 4280485680
3.825 1.0319999 -0.028000001 4280485680
3.8529999 1.064 -0.215 4280485680
3.8840001 1.074 -0.152 4280485680
3.8329999 1.061 -0.086000003 4280485680
3.869 1.098 -0.146 4280485680
3.842 0.99800003 -0.23199999 4280485680
3.868 0.98199999 -0.21799999 4280485680
3.9130001 0.97000003 -0.204 4280485680
3.835 0.93000001 -0.24699999 4280485680
3.9560001 0.95599997 -0.191 4280485680
3.8759999 0.91600001 -0.235 4280485680
3.997 0.94099998 -0.177 4280485680
3.8870001 0.898 -0.28400001 4280485680
3.9170001 0.90100002 -0.222 4280485680
4.0409999 0.926 -0.164 4280485680
3.836 0.86199999 -0.26499999 4280485680
3.9590001 0.88599998 -0.20999999 4280485680
4.0869999 0.91100001 -0.15000001 4280485680
3.8789999 0.847 -0.25400001 4280485680
4 0.87 -0.197 4280485680
4.131 0.89499998 -0.13699999 4280485680
3.9230001 0.83200002 -0.243 4280485680
4.0380001 0.85299999 -0.184 4280485680
4.178 0.87900001 -0.123 4280485680
3.8640001 0.79799998 -0.28799999 4280485680
3.9560001 0.81400001 -0.23100001 4280485680
4.0869999 0.83700001 -0.17200001 4280485680
3.878 0.77600002 -0.27599999 4280485680
4.0009999 0.79699999 -0.22 4280485680
4.1300001 0.81900001 -0.16 4280485680
4.277 0.84500003 -0.097000003 4280485680
3.9189999 0.759 -0.266 4280485680
4.0419998 0.77899998 -0.208 4280485680
4.1760001 0.801 -0.148 4280485680
4.3140001 0.82499999 -0.082999997 4280485680
3.8599999 0.727 -0.31200001 4280485680
3.9560001 0.741 -0.255 4280485680
4.0809999 0.76099998 -0.197 4280485680
4.2189999 0.78299999 -0.13600001 4280485680
4.2989998 0.79400003 -0.068999998 4280485680
3.8900001 0.70700002 -0.30199999 4280485680
3.9979999 0.72299999 -0.245 4280485680
4.1209998 0.74199998 -0.186 4280485680
4.277 0.76599997 -0.124 4280485680
4.2779999 0.76300001 -0.056000002 4280485680
3.911 0.68599999 -0.29100001 4280485680
4.04 0.704 -0.235 4280485680
4.2789998 0.73799998 -0.111 4280485680
4.2610002 0.73199999 -0.041999999 4280485680
3.9530001 0.667 -0.28200001 4280485680
4.0809999 0.685 -0.22499999 4280485680
4.2589998 0.70700002 -0.097999997 4280485680
4.2410002 0.70099998 -0.029999999 4280485680
3.9389999 0.64300001 -0.333 4280485680
3.987 0.64700001 -0.273 4280485680
4.1230001 0.66500002 -0.21600001 4280485680
4.2610002 0.68300003 -0.154 4280485680
4.2399998 0.676 -0.085000001 4280485680
4.224 0.67000002 -0.017000001 4280485680
4.0289998 0.62699997 -0.264 4280485680
4.1630001 0.64399999 -0.206 4280485680
4.2459998 0.653 -0.142 4280485680
4.2220001 0.64600003 -0.072999999 4280485680
4.21 0.63999999 -0.0049999999 4280485680
3.9449999 0.59200001 -0.31099999 4280485680
4.0679998 0.60600001 -0.255 4280485680
4.2090001 0.62300003 -0.19599999 4280485680
4.224 0.62099999 -0.12899999 4280485680
4.2049999 0.61500001 -0.061000001 4280485680
4.1890001 0.60900003 0.0049999999 4280485680
3.971 0.56900001 -0.303 4280485680
4.1040001 0.58399999 -0.24699999 4280485680
4.23 0.59799999 -0.186 4280485680
4.2119999 0.59200001 -0.118 4280485680
4.1869998 0.58399999 -0.050000001 4280485680
4.1729999 0.579 0.016000001 4280485680
4.006 0.54799998 -0.29499999 4280485680
4.152 0.56300002 -0.23899999 4280485680
4.2140002 0.56699997 -0.17399999 4280485680
4.1950002 0.56099999 -0.106 4280485680
4.1690001 0.55400002 -0.039000001 4280485680
4.1479998 0.54799998 0.026000001 4280485680
4.046 0.52600002 -0.287 4280485680
4.1960001 0.54100001 -0.23100001 4280485680
4.1929998 0.537 -0.163 4280485680
4.177 0.53100002 -0.096000001 4280485680
4.151 0.52399999 -0.028999999 4280485680
4.1339998 0.51800001 0.035999998 4280485680
4.086 0.50400001 -0.28 4280485680
4.191 0.51300001 -0.22 4280485680
4.1690001 0.50599998 -0.152 4280485680
4.1529999 0.5 -0.085000001 4280485680
4.1360002 0.49399999 -0.018999999 4280485680
4.1160002 0.48899999 0.046 4280485680
4.125 0.48100001 -0.273 4280485680
4.184 0.484 -0.20999999 4280485680
4.1589999 0.477 -0.142 4280485680
4.1360002 0.47 -0.075000003 4280485680
4.1139998 0.46399999 -0.0089999996 4280485680
4.098 0.45899999 0.055 4280485680
4.165 0.458 -0.266 4280485680
4.1609998 0.45300001 -0.2 4280485680
4.1329999 0.44600001 -0.132 4280485680
4.119 0.44100001 -0.066 4280485680
4.0910001 0.43399999 0 4280485680
4.0749998 0.42899999 0.064000003 4280485680
4.1609998 0.43000001 -0.257 4280485680
4.1409998 0.42300001 -0.19 4280485680
4.1170001 0.417 -0.123 4280485680
4.0960002 0.41100001 -0.057 4280485680
4.0760002 0.405 0.0080000004 4280485680
4.0970001 0.403 0.072999999 4280485680
4.145 0.40000001 -0.24699999 4280485680
4.1240001 0.39399999 -0.18000001 4280485680
4.1040001 0.38800001 -0.114 4280485680
4.0819998 0.382 -0.048 4280485680
4.1459999 0.37400001 -0.118 4280485680
4.1040001 0.39899999 -0.111 4280485680
4.0869999 0.40000001 -0.046 4280485680
4.066 0.40200001 0.017999999 4280485680
4.0879998 0.40799999 0.083999999 4280485680
4.1069999 0.42699999 -0.105 4280485680
4.0999999 0.43000001 -0.039000001 4280485680
4.0840001 0.43200001 0.025 4280485680
4.0689998 0.43399999 0.089000002 4280485680
4.0819998 0.43900001 0.155 4280485680
4.1259999 0.458 -0.098999999 4280485680
4.1129999 0.46000001 -0.033 4280485680
4.0999999 0.46200001 0.030999999 4280485680
4.0840001 0.463 0.096000001 4280485680
4.0599999 0.46399999 0.161 4280485680
4.1430001 0.48800001 -0.092 4280485680
4.1300001 0.49000001 -0.026000001 4280485680
4.112 0.491 0.037999999 4280485680
4.0960002 0.493 0.104 4280485680
4.0739999 0.49399999 0.168 4280485680
4.0469999 0.49399999 0.23199999 4280485680
4.1570001 0.51899999 -0.085000001 4280485680
4.1399999 0.51999998 -0.018999999 4280485680
4.1279998 0.52200001 0.046 4280485680
4.1069999 0.523 0.111 4280485680
4.0910001 0.52399999 0.176 4280485680
4.0780001 0.52600002 0.241 4280485680
4.1719999 0.54900002 -0.078000002 4280485680
4.1560001 0.55000001 -0.011 4280485680
4.1389999 0.551 0.054000001 4280485680
4.1259999 0.55299997 0.12 4280485680
4.1020002 0.55400002 0.185 4280485680
4.0890002 0.55599999 0.25 4280485680
4.1869998 0.57999998 -0.07 4280485680
4.1760001 0.58200002 -0.003 4280485680
4.1560001 0.58200002 0.061999999 4280485680
4.1350002 0.583 0.12800001 4280485680
4.118 0.58399999 0.19400001 4280485680
4.1100001 0.58700001 0.259 4280485680
4.198 0.611 -0.061999999 4280485680
4.1880002 0.61199999 0.0040000002 4280485680
4.1620002 0.61199999 0.071000002 4280485680
4.1479998 0.61299998 0.13699999 4280485680
4.1339998 0.61500001 0.20299999 4280485680
4.1149998 0.616 0.26800001 4280485680
4.2150002 0.64200002 -0.052999999 4280485680
4.1999998 0.64300001 0.013 4280485680
4.178 0.64300001 0.079999998 4280485680
4.165 0.64399999 0.147 4280485680
4.1440001 0.64499998 0.213 4280485680
4.1300001 0.64600003 0.278 4280485680
4.2259998 0.67299998 -0.044 4280485680
4.2129998 0.67400002 0.023 4280485680
4.1900001 0.67299998 0.090000004 4280485680
4.1810002 0.67500001 0.15700001 4280485680
4.1570001 0.67500001 0.223 4280485680
4.1430001 0.67699999 0.289 4280485680
4.243 0.70499998 -0.035 4280485680
4.2249999 0.70499998 0.032000002 4280485680
4.2090001 0.70499998 0.1 4280485680
4.1869998 0.70499998 0.167 4280485680
4.171 0.70599997 0.233 4280485680
4.1529999 0.70599997 0.29899999 4280485680
4.2490001 0.73500001 -0.025 4280485680
4.2350001 0.73500001 0.041999999 4280485680
4.2220001 0.736 0.11 4280485680
4.1989999 0.73500001 0.177 4280485680
4.1810002 0.736 0.244 4280485680
4.1700001 0.73799998 0.31099999 4280485680
4.2680001 0.76700002 -0.014 4280485680
4.25 0.76599997 0.052999999 4280485680
4.2329998 0.76700002 0.121 4280485680
4.2069998 0.76499999 0.18799999 4280485680
4.1950002 0.76700002 0.255 4280485680
4.151 0.76300001 0.31999999 4280485680
4.276 0.79699999 -0.003 4280485680
4.256 0.796 0.064000003 4280485680
4.2350001 0.796 0.132 4280485680
4.2150002 0.79500002 0.199 4280485680
4.145 0.78600001 0.26300001 4280485680
4.0819998 0.778 0.32600001 4280485680
4.29 0.829 0.0070000002 4280485680
4.2690001 0.82800001 0.075999998 4280485680
4.2119999 0.81999999 0.14300001 4280485680
4.1490002 0.81099999 0.207 4280485680
4.092 0.80299997 0.271 4280485680
4.0289998 0.79500002 0.33199999 4280485680
4.2750001 0.85500002 0.017999999 4280485680
4.2189999 0.84600002 0.086000003 4280485680
4.1609998 0.838 0.152 4280485680
4.092 0.82700002 0.21600001 4280485680
4.0279999 0.81800002 0.278 4280485680
4.013 0.81900001 0.34200001 4280485680
4.2210002 0.87199998 0.029999999 4280485680
4.1620002 0.86199999 0.097000003 4280485680
4.1020002 0.85299999 0.162 4280485680
4.0349998 0.84299999 0.22499999 4280485680
3.974 0.833 0.28600001 4280485680
4.165 0.88800001 0.041999999 4280485680
4.1020002 0.87800002 0.107 4280485680
4.04 0.86699998 0.171 4280485680
3.9820001 0.85799998 0.233 4280485680
3.9760001 0.86000001 0.29800001 4280485680
4.0999999 0.90100002 0.052999999 4280485680
4.0450001 0.89200002 0.118 4280485680
3.9879999 0.88200003 0.18099999 4280485680
3.9189999 0.87 0.242 4280485680
4.0430002 0.91600001 0.064999998 4280485680
3.993 0.90700001 0.12899999 4280485680
3.927 0.89499998 0.191 4280485680
3.987 0.912 0.259 4280485680
3.9860001 0.92900002 0.075999998 4280485680
3.9300001 0.91900003 0.139 4280485680
3.865 0.90600002 0.2 4280485680
3.924 0.94 0.088 4280485680
3.872 0.93000001 0.15000001 4280485680
3.872 0.95300001 0.1 4280485680
3.8499999 0.972 0.112 4280485680
3.845 1.0880001 -0.199 4280485680
3.8429999 1.084 -0.13500001 4280485680
3.869 1.067 -0.192 4280485680
3.8829999 1.068 -0.12800001 4280485680
3.829 1.05 -0.063000001 4280485680
3.904 1.049 -0.186 4280485680
3.9200001 1.05 -0.122 4280485680
3.8770001 1.036 -0.056000002 4280485680
3.826 1.02 0.0070000002 4280485680
3.9289999 1.027 -0.17900001 4280485680
3.9619999 1.033 -0.116 4280485680
3.914 1.017 -0.050000001 4280485680
3.8629999 1.002 0.014 4280485680
3.8510001 0.99699998 0.077 4280485680
3.96 1.007 -0.17399999 4280485680
4.0079999 1.016 -0.11 4280485680
3.957 1 -0.043000001 4280485680
3.9089999 0.986 0.021 4280485680
3.8540001 0.97000003 0.083999999 4280485680
3.9909999 0.986 -0.168 4280485680
4.0479999 0.99699998 -0.104 4280485680
3.9979999 0.98199999 -0.037 4280485680
3.9549999 0.96899998 0.027000001 4280485680
3.8959999 0.95300001 0.090999998 4280485680
3.846 0.93900001 0.153 4280485680
4.0250001 0.96499997 -0.163 4280485680
4.0929999 0.97899997 -0.098999999 4280485680
4.0430002 0.96399999 -0.030999999 4280485680
3.9949999 0.94999999 0.034000002 4280485680
3.9389999 0.935 0.097999997 4280485680
3.8889999 0.92199999 0.16 4280485680
4.0469999 0.94199997 -0.15800001 4280485680
4.1409998 0.95999998 -0.093999997 4280485680
4.0910001 0.94599998 -0.026000001 4280485680
4.0359998 0.93099999 0.039999999 4280485680
3.9849999 0.917 0.105 4280485680
3.938 0.90499997 0.168 4280485680
4.0760002 0.91900003 -0.153 4280485680
4.1859999 0.94099998 -0.089000002 4280485680
4.1409998 0.92799997 -0.02 4280485680
4.092 0.91399997 0.046 4280485680
4.0300002 0.898 0.111 4280485680
3.983 0.88599998 0.175 4280485680
4.1059999 0.89600003 -0.148 4280485680
4.2360001 0.921 -0.083999999 4280485680
4.1869998 0.90799999 -0.015 4280485680
4.1329999 0.89300001 0.052000001 4280485680
4.0799999 0.88 0.117 4280485680
4.0300002 0.86699998 0.182 4280485680
4.131 0.87199998 -0.14399999 4280485680
4.277 0.89999998 -0.079999998 4280485680
4.23 0.88700002 -0.0099999998 4280485680
4.1820002 0.87400001 0.057 4280485680
4.1290002 0.86000001 0.123 4280485680
4.0700002 0.84600002 0.18799999 4280485680
4.1550002 0.847 -0.14 4280485680
4.3140001 0.87599999 -0.075999998 4280485680
4.2849998 0.86699998 -0.0060000001 4280485680
4.23 0.85399997 0.061999999 4280485680
4.1760001 0.83999997 0.12899999 4280485680
4.131 0.829 0.19499999 4280485680
4.1880002 0.824 -0.13699999 4280485680
4.3179998 0.84600002 -0.071000002 4280485680
4.2950001 0.83899999 -0.001 4280485680
4.2800002 0.833 0.067000002 4280485680
4.2249999 0.81999999 0.134 4280485680
4.1690001 0.80699998 0.2 4280485680
4.2210002 0.801 -0.134 4280485680
4.302 0.81300002 -0.067000002 4280485680
4.2789998 0.80500001 0.001 4280485680
4.263 0.79900002 0.07 4280485680
4.2389998 0.792 0.138 4280485680
4.2199998 0.78600001 0.206 4280485680
4.2480001 0.77499998 -0.131 4280485680
4.2849998 0.77899998 -0.063000001 4280485680
4.2659998 0.77200001 0.0049999999 4280485680
4.2410002 0.76499999 0.072999999 4280485680
4.2179999 0.75800002 0.141 4280485680
4.2030001 0.75300002 0.208 4280485680
4.2789998 0.75099999 -0.12899999 4280485680
4.2709999 0.74599999 -0.059999999 4280485680
4.2490001 0.73799998 0.0080000004 4280485680
4.2259998 0.73100001 0.075999998 4280485680
4.2090001 0.72600001 0.14300001 4280485680
4.1890001 0.72000003 0.20999999 4280485680
4.277 0.72000003 -0.126 4280485680
4.2579999 0.713 -0.057 4280485680
4.237 0.70599997 0.011 4280485680
4.2129998 0.699 0.078000002 4280485680
4.1919999 0.69300002 0.145 4280485680
4.1719999 0.68699998 0.212 4280485680
4.256 0.68599999 -0.123 4280485680
4.2350001 0.67900002 -0.054000001 4280485680
4.2189999 0.67299998 0.013 4280485680
4.1950002 0.66600001 0.079999998 4280485680
4.1760001 0.66000003 0.147 4280485680
4.1529999 0.65399998 0.213 4280485680
4.237 0.65200001 -0.12 4280485680
4.2199998 0.64600003 -0.052000001 4280485680
4.1960001 0.639 0.015 4280485680
4.1750002 0.63300002 0.081 4280485680
4.1539998 0.62699997 0.148 4280485680
4.1389999 0.62199998 0.213 4280485680
4.2179999 0.62 -0.118 4280485680
4.2030001 0.61400002 -0.050000001 4280485680
4.1799998 0.60699999 0.016000001 4280485680
4.158 0.60100001 0.082999997 4280485680
4.1399999 0.59500003 0.148 4280485680
4.119 0.58899999 0.214 4280485680
4.2069998 0.588 -0.116 4280485680
4.1820002 0.58099997 -0.048999999 4280485680
4.1669998 0.57599998 0.017000001 4280485680
4.1409998 0.56900001 0.082999997 4280485680
4.125 0.56300002 0.149 4280485680
4.1079998 0.55800003 0.214 4280485680
4.191 0.55699998 -0.114 4280485680
4.1680002 0.55000001 -0.046999998 4280485680
4.151 0.54400003 0.017999999 4280485680
4.1269999 0.537 0.083999999 4280485680
4.1020002 0.53100002 0.148 4280485680
4.0879998 0.52600002 0.213 4280485680
4.1729999 0.52399999 -0.113 4280485680
4.151 0.51800001 -0.046999998 4280485680
4.1290002 0.51200002 0.017999999 4280485680
4.1110001 0.50599998 0.082999997 4280485680
4.0879998 0.5 0.148 4280485680
4.0700002 0.49399999 0.212 4280485680
4.1560001 0.493 -0.112 4280485680
4.1360002 0.48699999 -0.046 4280485680
4.1139998 0.47999999 0.017999999 4280485680
4.0960002 0.47499999 0.082999997 4280485680
4.0710001 0.46900001 0.147 4280485680
4.0929999 0.46799999 0.213 4280485680
4.1389999 0.46200001 -0.112 4280485680
4.1209998 0.456 -0.046 4280485680
4.099 0.44999999 0.017999999 4280485680
4.0799999 0.44400001 0.082000002 4280485680
4.053 0.43799999 0.146 4280485680
4.1220002 0.43099999 -0.112 4280485680
4.1020002 0.42500001 -0.046999998 4280485680
4.0799999 0.419 0.017000001 4280485680
4.0630002 0.41299999 0.081 4280485680
4.1090002 0.40099999 -0.113 4280485680
4.085 0.39500001 -0.046999998 4280485680
4.0710001 0.38999999 0.016000001 4280485680
4.125 0.37400001 -0.114 4280485680
4.0560002 0.403 0.046999998 4280485680
4.0630002 0.428 0.063000001 4280485680
4.0679998 0.43200001 0.12800001 4280485680
4.0710001 0.45300001 0.079000004 4280485680
4.0630002 0.45500001 0.14399999 4280485680
4.0760002 0.477 0.094999999 4280485680
4.066 0.47999999 0.16 4280485680
4.053 0.48199999 0.22499999 4280485680
4.092 0.50300002 0.112 4280485680
4.0739999 0.50400001 0.177 4280485680
4.1149998 0.51300001 0.245 4280485680
4.1009998 0.52700001 0.12899999 4280485680
4.086 0.52899998 0.19499999 4280485680
4.072 0.53100002 0.25999999 4280485680
4.1069999 0.55199999 0.147 4280485680
4.0929999 0.55400002 0.212 4280485680
4.0819998 0.55599999 0.278 4280485680
4.1079998 0.57499999 0.16500001 4280485680
4.1030002 0.57800001 0.23 4280485680
4.086 0.57999998 0.29499999 4280485680
4.1290002 0.60100001 0.184 4280485680
4.112 0.60299999 0.249 4280485680
4.0949998 0.60399997 0.31400001 4280485680
4.1350002 0.62599999 0.20200001 4280485680
4.1139998 0.62599999 0.26800001 4280485680
4.0999999 0.62800002 0.333 4280485680
4.138 0.64899999 0.221 4280485680
4.1269999 0.65100002 0.287 4280485680
4.1079998 0.65200001 0.352 4280485680
4.1500001 0.67299998 0.241 4280485680
4.1329999 0.67500001 0.30700001 4280485680
4.1199999 0.67699999 0.373 4280485680
4.152 0.69700003 0.26100001 4280485680
4.138 0.69800001 0.32600001 4280485680
4.1370001 0.70300001 0.39399999 4280485680
4.1620002 0.72100002 0.28099999 4280485680
4.145 0.722 0.347 4280485680
4.1810002 0.73299998 0.41800001 4280485680
4.171 0.74400002 0.301 4280485680
4.145 0.74400002 0.36700001 4280485680
4.152 0.76300001 0.31999999 4280485680
4.0900002 0.75599998 0.382 4280485680
4.0929999 0.773 0.336 4280485680
4.0359998 0.78299999 0.352 4280485680
3.849 0.94499999 0.148 4280485680
3.888 0.92699999 0.147 4280485680
3.9360001 0.93599999 0.215 4280485680
3.938 0.91000003 0.147 4280485680
3.8900001 0.89700001 0.20900001 4280485680
3.99 0.89300001 0.145 4280485680
3.951 0.88200003 0.20900001 4280485680
3.987 0.88800001 0.27700001 4280485680
4.0510001 0.87800002 0.14399999 4280485680
4.0050001 0.86500001 0.208 4280485680
3.95 0.85100001 0.271 4280485680
4.1030002 0.85900003 0.142 4280485680
4.059 0.847 0.207 4280485680
4.0029998 0.83399999 0.27000001 4280485680
4.1599998 0.84200001 0.139 4280485680
4.1129999 0.82999998 0.205 4280485680
4.0570002 0.81599998 0.26899999 4280485680
4.0089998 0.80400002 0.33199999 4280485680
4.2189999 0.824 0.13600001 4280485680
4.1719999 0.81199998 0.20299999 4280485680
4.1170001 0.79799998 0.26800001 4280485680
4.0640001 0.78600001 0.331 4280485680
4.2410002 0.79799998 0.132 4280485680
4.2259998 0.79299998 0.2 4280485680
4.1789999 0.78100002 0.266 4280485680
4.1209998 0.76800001 0.33000001 4280485680
4.1240001 0.76599997 0.398 4280485680
4.2280002 0.76599997 0.126 4280485680
4.2059999 0.759 0.193 4280485680
4.1849999 0.75300002 0.26100001 4280485680
4.165 0.74699998 0.32699999 4280485680
4.131 0.73799998 0.39199999 4280485680
4.2129998 0.73400003 0.12 4280485680
4.1960001 0.72799999 0.18700001 4280485680
4.177 0.722 0.25400001 4280485680
4.1550002 0.71600002 0.31999999 4280485680
4.1350002 0.70999998 0.38600001 4280485680
4.198 0.70300001 0.113 4280485680
4.1820002 0.69700003 0.18000001 4280485680
4.164 0.69099998 0.24699999 4280485680
4.1389999 0.68400002 0.31200001 4280485680
4.1170001 0.67799997 0.37799999 4280485680
4.1900001 0.67299998 0.106 4280485680
4.1690001 0.66600001 0.17299999 4280485680
4.1469998 0.65899998 0.23899999 4280485680
4.1199999 0.65200001 0.30399999 4280485680
4.151 0.65499997 0.373 4280485680
4.1700001 0.64099997 0.098999999 4280485680
4.1570001 0.63499999 0.16500001 4280485680
4.1360002 0.62900001 0.23100001 4280485680
4.1110001 0.62300003 0.296 4280485680
4.073 0.61400002 0.359 4280485680
4.1550002 0.61000001 0.090999998 4280485680
4.1409998 0.60399997 0.15700001 4280485680
4.1160002 0.597 0.222 4280485680
4.098 0.59200001 0.287 4280485680
4.0700002 0.58499998 0.34999999 4280485680
4.1469998 0.57999998 0.082999997 4280485680
4.1259999 0.574 0.149 4280485680
4.1059999 0.56800002 0.214 4280485680
4.0840001 0.56199998 0.278 4280485680
4.1300001 0.55000001 0.075000003 4280485680
4.1110001 0.54400003 0.14 4280485680
4.0929999 0.53799999 0.205 4280485680
4.1110001 0.53799999 0.271 4280485680
4.1170001 0.51999998 0.067000002 4280485680
4.0949998 0.514 0.131 4280485680
4.0770001 0.50800002 0.19599999 4280485680
4.0900002 0.50700003 0.26100001 4280485680
4.1040001 0.491 0.057999998 4280485680
4.0890002 0.486 0.123 4280485680
4.0700002 0.47999999 0.18700001 4280485680
4.0949998 0.463 0.048999999 4280485680
4.0739999 0.45699999 0.113 4280485680
4.052 0.45100001 0.177 4280485680
4.0760002 0.43399999 0.039999999 4280485680
4.0650001 0.42899999 0.104 4280485680
4.0599999 0.405 0.030999999 4280485680
4.1100001 0.37 -0.2 4280485680
4.1020002 0.373 -0.13600001 4280485680
4.158 0.396 -0.28400001 4280485680
4.1360002 0.39700001 -0.21699999 4280485680
4.1199999 0.40000001 -0.152 4280485680
4.1389999 0.41800001 -0.29800001 4280485680
4.1550002 0.42399999 -0.234 4280485680
4.1370001 0.426 -0.168 4280485680
4.0869999 0.43799999 -0.31 4280485680
4.1690001 0.44999999 -0.25 4280485680
4.1570001 0.45300001 -0.184 4280485680
4.0970001 0.46399999 -0.32499999 4280485680
4.1529999 0.47400001 -0.264 4280485680
4.1799998 0.48100001 -0.199 4280485680
4.0840001 0.48699999 -0.33899999 4280485680
4.099 0.493 -0.27500001 4280485680
4.1950002 0.50800002 -0.215 4280485680
4.052 0.51200002 -0.285 4280485680
4.1999998 0.53399998 -0.229 4280485680
4.0159998 0.53200001 -0.296 4280485680
4.1500001 0.55400002 -0.23999999 4280485680
3.977 0.55199999 -0.30700001 4280485680
4.1069999 0.574 -0.25099999 4280485680
4.0619998 0.59299999 -0.26100001 4280485680
3.9219999 0.59399998 -0.32699999 4280485680
4.0180001 0.61199999 -0.27000001 4280485680
3.9460001 0.62300003 -0.34099999 4280485680
3.9790001 0.63200003 -0.28 4280485680
3.9460001 0.65200001 -0.289 4280485680
3.9070001 0.671 -0.29699999 4280485680
3.947 0.704 -0.31099999 4280485680
3.8570001 0.713 -0.315 4280485680
4.2020001 0.75 0.42199999 4280485680
4.1430001 0.713 0.403 4280485680
4.1350002 0.685 0.389 4280485680
4.1360002 0.66000003 0.375 4280485680
4.138 0.634 0.361 4280485680
4.132 0.60799998 0.34599999 4280485680
4.0640001 0.57300001 0.32600001 4280485680
4.1220002 0.55699998 0.315 4280485680
4.0640001 0.51200002 -0.34 4280485680
4.0320001 0.49000001 -0.315 4280485680
4.0700002 0.477 -0.29499999 4280485680
4.1269999 0.46599999 -0.27599999 4280485680
4.1269999 0.45100001 -0.32100001 4280485680
4.1799998 0.45300001 -0.257 4280485680
4.1139998 0.43099999 -0.29699999 4280485680
4.164 0.43200001 -0.233 4280485680
4.1659999 0.417 -0.27900001 4280485680
4.145 0.41100001 -0.20999999 4280485680
4.138 0.39500001 -0.255 4280485680
4.1329999 0.38999999 -0.18799999 4280485680
